ply
format ascii 1.0
comment author: F. Lafarge
element vertex 1172
property float x
property float y
property float z
property uchar red
property uchar green
property uchar blue
end_header
0.431118 -6.910290 4.726090 135 197 225
0.052435 -6.977410 4.723810 202 141 164
0.052435 -7.419390 5.110500 199 247 225
-0.320908 -7.417110 5.110500 249 251 222
-0.729717 -7.444940 5.110500 191 159 206
-1.002000 -7.832020 5.110500 132 207 241
-1.325770 -7.849180 5.110500 253 156 176
-1.704070 -7.918580 5.110500 211 210 135
-2.036230 -7.800370 5.110500 177 170 147
-2.327960 -7.975020 5.110500 182 196 149
-2.654780 -7.949090 5.110500 220 247 178
-2.960240 -7.916290 5.110500 147 142 215
-3.327490 -7.497570 5.110500 226 146 179
-3.322530 -7.093340 5.110500 252 209 222
-3.737820 -6.690630 5.110500 206 203 188
-4.139380 -6.690630 5.110500 160 250 216
-4.139380 -6.287920 5.110500 253 173 196
-4.139380 -5.883690 5.110500 157 147 132
-4.139380 -5.884830 4.713890 138 169 158
-4.139380 -5.889790 4.318430 187 175 218
-4.139380 -5.897040 3.922970 183 134 188
-4.139380 -5.908090 3.525980 196 243 224
-4.139380 -5.921440 3.130520 151 219 252
-4.139380 -5.937460 2.735060 237 199 171
-4.157690 -5.565260 2.717890 133 194 243
-4.157690 -5.584710 2.320140 237 138 204
-4.212600 -5.214800 2.299170 176 186 191
-4.304130 -4.852130 2.280870 163 149 133
-4.429970 -4.500910 2.261420 248 148 156
-4.589760 -4.162650 2.244260 246 167 234
-4.782720 -3.841550 2.227480 241 223 224
-5.004670 -3.541430 2.211460 176 251 237
-5.256360 -3.265330 2.196970 246 149 156
-5.533230 -3.014020 2.183240 134 234 232
-5.834870 -2.791690 2.171040 252 235 191
-6.155970 -2.598720 2.161500 155 140 246
-6.494230 -2.438940 2.152730 204 247 237
-6.845460 -2.313090 2.145490 242 238 133
-7.209270 -2.223090 2.140530 149 209 133
-7.579180 -2.167800 2.138240 186 176 189
-7.952900 -2.149490 2.137100 227 180 255
-8.204210 -2.133860 2.459340 134 244 227
-8.454380 -2.120510 2.754500 242 219 147
-8.703400 -2.108300 3.043950 251 175 185
-8.953950 -2.098390 3.344070 216 248 147
-9.205260 -2.088470 3.664030 150 159 174
-9.205260 -1.726190 3.654500 226 208 166
-9.205260 -1.737250 3.290690 172 241 172
-9.205260 -1.749450 2.925730 169 202 180
-9.205260 -1.765090 2.561920 228 198 247
-9.205260 -1.782250 2.198110 219 158 211
-9.205260 -1.801700 1.834300 137 189 161
-9.205260 -1.824960 1.470490 206 199 232
-9.205260 -1.484410 1.079990 175 252 162
-9.205260 -1.022980 1.040710 196 211 181
-9.205260 -1.051200 0.672323 139 255 197
-9.205260 -0.572603 0.297454 190 200 225
-9.205260 -0.604254 -0.070169 247 188 133
-9.205260 -0.637048 -0.436266 200 157 153
-9.205260 -0.267518 -0.818381 167 197 147
-9.205260 -0.313662 -1.197830 207 137 186
-9.205260 0.016968 -1.622650 162 143 151
-9.205260 0.352940 -2.051290 172 185 157
-8.854800 0.310229 -2.386880 154 243 190
-8.519210 0.268660 -2.707980 193 167 146
-8.205360 0.225949 -3.022980 198 157 180
-7.867480 0.230528 -2.986370 215 250 252
-7.594050 0.183237 -3.317000 152 223 189
-7.358380 0.131754 -3.661360 239 206 207
-7.157020 0.077987 -4.017920 155 194 252
-6.978550 0.019637 -4.380210 168 191 149
-6.808850 -0.041378 -4.745160 242 220 172
-6.633430 -0.105063 -5.110500 134 135 232
-6.265800 -0.105063 -5.110500 186 164 254
-5.897040 -0.105063 -5.110500 184 228 202
-5.529790 -0.466203 -5.046810 189 253 171
-5.162170 -0.466203 -5.046810 147 184 132
-4.794930 -0.466203 -5.046810 253 252 145
-4.427300 -0.466203 -5.046810 185 240 254
-4.060060 -0.466203 -5.046810 227 210 243
-3.692440 -0.466203 -5.046810 196 249 201
-3.325200 -0.466203 -5.046810 149 172 174
-3.325200 -0.828870 -4.983510 239 157 217
-2.956430 -0.828870 -4.983510 234 138 199
-2.589190 -0.828870 -4.983510 213 135 245
-2.221570 -0.828870 -4.983510 198 132 223
-1.854320 -0.828870 -4.983510 196 249 201
-1.486700 -0.828870 -4.983510 200 162 251
-1.119460 -0.828870 -4.983510 213 211 240
-0.751835 -0.828870 -4.983510 205 134 254
-0.384594 -0.828870 -4.983510 176 160 163
-0.015827 -0.828870 -4.983510 242 187 207
0.347983 -0.838784 -4.980840 139 158 131
0.328534 -1.203740 -4.917530 228 154 249
0.305272 -1.644200 -4.839360 221 179 155
0.696921 -1.651450 -4.838210 254 212 205
1.092760 -2.030130 -4.771090 183 229 175
1.462290 -2.017930 -4.773380 225 186 144
1.829920 -2.016780 -4.773380 160 153 234
1.829920 -1.638100 -4.840500 148 213 212
2.202120 -1.268190 -4.905330 184 243 153
2.580420 -1.214420 -4.596430 140 134 208
2.973590 -1.165600 -4.323000 144 214 247
3.007910 -1.503860 -3.972540 175 195 249
3.050620 -1.844410 -3.645340 214 151 153
3.105540 -2.186100 -3.313570 183 255 208
3.176470 -2.525500 -2.973020 135 179 224
3.260750 -2.476690 -2.699590 168 207 145
3.358380 -2.429020 -2.430740 240 230 232
3.468200 -2.382880 -2.166080 181 150 225
3.590240 -2.337500 -1.907140 150 247 179
3.724470 -2.292500 -1.654690 253 172 141
3.870910 -2.249790 -1.407950 194 142 248
4.028410 -2.207070 -1.166170 248 216 137
4.199260 -2.165510 -0.932024 201 243 160
4.380020 -2.125090 -0.705882 228 212 224
4.570310 -2.087330 -0.488893 230 225 251
4.769380 -2.050720 -0.282582 204 169 254
4.979120 -2.015260 -0.084660 199 183 189
5.199160 -1.982460 0.103346 162 166 232
5.427210 -1.950810 0.282582 227 141 196
5.664030 -1.921440 0.451139 159 216 231
5.908090 -1.893220 0.607494 168 145 237
6.159790 -1.867670 0.752789 159 150 162
6.416050 -1.844410 0.887025 202 166 167
6.678430 -1.823820 1.007910 234 148 240
6.946900 -1.804370 1.117740 170 195 143
7.218040 -1.400130 1.145960 248 196 232
7.497570 -1.384120 1.229860 197 186 169
7.780910 -1.371910 1.301940 230 212 225
8.057770 -0.975308 1.290880 212 148 187
8.344930 -0.966918 1.337400 249 199 136
8.622940 -0.573745 1.300790 181 237 223
8.907430 -0.183241 1.251980 171 222 175
8.890650 -0.118411 1.618080 216 235 160
9.205260 -0.052438 1.991800 203 192 135
9.205260 -0.359043 2.422730 182 166 154
9.205260 -0.662982 2.855940 134 216 177
9.205260 -0.858234 3.378400 218 141 195
9.205260 -0.687389 3.710550 166 223 169
9.205260 -0.655356 4.041190 195 140 163
9.205260 -0.605396 4.364570 190 194 237
9.205260 -0.259891 4.373340 136 199 162
9.205260 -0.185529 4.751640 202 170 184
9.205260 -0.148920 5.110500 187 194 151
9.205260 0.227094 5.110500 163 219 239
8.829250 0.227094 5.110500 172 229 197
8.453240 0.227094 5.110500 219 143 141
8.077600 0.227094 5.110500 222 198 254
7.701590 0.227094 5.110500 192 221 232
7.326720 0.227094 5.110500 159 167 177
7.326720 0.603105 5.110500 179 192 135
7.326720 0.979120 5.110500 188 235 254
7.326720 1.355130 5.110500 252 173 232
7.326720 1.731140 5.110500 138 213 151
6.950710 1.355130 5.110500 188 246 199
6.574700 0.979120 5.110500 228 228 135
6.198680 0.603105 5.110500 178 179 206
6.198680 0.227094 5.110500 249 219 145
6.198680 -0.148920 5.110500 166 130 132
5.826480 -0.524931 5.110500 181 147 174
5.493180 -0.914293 5.110500 203 218 154
5.482120 -1.192680 5.110500 143 188 177
5.822670 -1.232720 5.110500 169 146 182
5.803220 -1.532080 5.110500 199 153 214
5.770430 -1.976360 5.110500 240 135 145
5.698350 -2.354660 5.110500 188 153 175
5.645720 -2.741730 5.110500 226 182 176
5.593480 -3.124990 5.110500 149 143 232
5.144250 -3.145580 5.110500 197 166 188
4.737720 -3.173800 5.110500 217 210 225
4.332350 -3.200500 5.110500 176 224 241
3.962440 -3.649730 5.110500 243 136 213
4.001720 -4.058920 5.110500 210 148 138
4.040610 -4.458200 5.110500 218 183 226
4.079510 -4.852130 5.110500 230 194 153
4.117650 -5.244160 5.110500 142 207 231
4.155400 -5.632380 5.110500 161 214 150
3.768330 -5.671280 5.110500 201 250 136
3.380110 -5.712840 5.110500 174 208 233
2.994570 -5.758220 5.110500 252 236 223
2.607490 -5.805510 5.110500 185 227 218
2.221570 -5.858140 5.110500 252 174 198
1.836020 -5.911910 5.110500 191 222 170
1.451620 -5.971780 5.110500 167 176 231
1.508820 -6.348940 5.110500 234 234 176
1.564880 -6.727240 5.110500 167 222 187
1.186580 -6.787110 4.727240 139 141 160
1.186580 -6.790930 4.343980 171 220 230
0.809419 -6.851940 4.341690 204 205 236
0.432262 -6.915250 4.335590 133 130 141
0.052435 -6.981220 4.336730 230 133 173
0.052435 -7.420540 4.710080 133 233 236
0.052435 -7.863670 4.718850 163 133 139
0.052435 -7.862520 5.110500 245 199 209
-0.299170 -7.849180 5.110500 147 182 196
-0.704167 -7.836970 5.110500 225 148 253
-0.972639 -8.192010 5.110500 179 201 195
-1.298690 -8.165320 5.110500 196 189 139
-1.668610 -8.193540 5.110500 219 249 167
-2.025170 -8.006680 5.110500 176 147 177
-2.027460 -8.255700 5.110500 204 219 194
-2.358470 -8.275150 5.110500 236 133 191
-2.696350 -8.292310 5.110500 212 135 190
-3.004100 -8.266760 5.110500 237 221 254
-3.328630 -7.901420 5.110500 200 224 190
-3.736680 -7.498710 5.110500 249 138 216
-3.737820 -7.094860 5.110500 232 164 189
-4.139380 -7.094860 5.110500 182 218 211
-4.139380 -7.096010 4.723810 147 253 186
-4.139380 -6.693300 4.719990 218 232 145
-4.139380 -6.289070 4.717700 204 214 154
-4.139380 -6.294020 4.324530 197 176 223
-4.139380 -6.301270 3.931360 185 148 239
-4.139380 -6.311190 3.538180 182 151 164
-4.139380 -6.324530 3.146530 243 154 147
-4.139380 -6.341690 2.753360 182 132 194
-4.139380 -5.956910 2.339590 187 141 192
-4.139380 -5.980170 1.944130 252 213 202
-4.157690 -5.606830 1.920870 241 245 238
-4.212600 -5.238060 1.898750 180 169 148
-4.304130 -4.875390 1.877010 155 218 232
-4.429970 -4.522650 1.854900 190 137 236
-4.589760 -4.185910 1.835450 226 192 254
-4.782720 -3.865960 1.816000 170 176 184
-5.004670 -3.565830 1.797690 162 160 147
-5.256360 -3.288590 1.780530 140 226 167
-5.533230 -3.037280 1.764520 214 223 134
-5.834870 -2.814950 1.751170 169 171 159
-6.155970 -2.623130 1.740110 168 164 164
-6.494230 -2.463340 1.730570 145 201 132
-6.845460 -2.337500 1.723330 183 147 223
-7.209270 -2.245970 1.717230 241 139 144
-7.579180 -2.192200 1.713410 173 158 141
-7.952900 -2.172750 1.712270 140 206 218
-8.203070 -2.153300 2.052820 232 223 251
-8.454380 -2.137290 2.365140 186 181 134
-8.704930 -2.123940 2.667940 249 133 136
-8.955100 -2.110590 2.977980 194 226 238
-9.205260 -2.099530 3.301360 212 199 135
-9.205260 -2.111740 2.940220 157 139 140
-9.205260 -2.127750 2.577560 166 208 163
-9.205260 -2.144910 2.216420 182 234 167
-9.205260 -2.165510 1.854900 245 169 184
-9.205260 -2.187620 1.493760 162 255 188
-9.205260 -1.849370 1.106680 142 182 205
-9.205260 -1.512630 0.714654 195 153 226
-9.205260 -1.876060 0.742873 138 220 247
-9.205260 -1.905430 0.379064 206 169 178
-9.205260 -1.573650 -0.016398 210 166 143
-9.205260 -1.607590 -0.382496 143 152 244
-9.205260 -1.182770 -0.782916 220 157 148
-9.205260 -0.733530 -1.171130 141 195 211
-9.205260 -0.361331 -1.577650 144 248 234
-9.205260 -0.029173 -2.004770 152 168 198
-9.205260 0.304127 -2.434550 170 235 136
-8.862430 0.261415 -2.761750 204 181 216
-8.539800 0.218322 -3.071790 242 196 181
-8.251880 0.174469 -3.374580 157 147 144
-7.925830 0.179426 -3.340260 144 157 165
-7.691680 0.130612 -3.671270 190 177 218
-7.497570 0.076841 -4.020210 173 204 170
-7.330160 0.019637 -4.380210 220 210 145
-7.169230 -0.041378 -4.745160 173 180 156
-7.000670 -0.105063 -5.110500 211 148 255
-6.666220 -0.452856 -5.049100 176 173 212
-6.301270 -0.457813 -5.047950 172 224 143
-5.897040 -0.466203 -5.046810 167 149 138
-5.529790 -0.828870 -4.983510 194 159 238
-5.162170 -0.828870 -4.983510 243 255 185
-4.794930 -0.828870 -4.983510 206 210 171
-4.427300 -0.828870 -4.983510 219 203 242
-4.060060 -0.828870 -4.983510 146 231 157
-3.692440 -0.828870 -4.983510 216 207 195
-3.693580 -1.151110 -4.925920 226 182 244
-3.325200 -1.190010 -4.919820 151 139 160
-2.956430 -1.190010 -4.919820 130 253 145
-2.589190 -1.190010 -4.919820 233 163 176
-2.221570 -1.190010 -4.919820 202 140 172
-1.854320 -1.190010 -4.919820 224 184 217
-1.486700 -1.190010 -4.919820 191 223 247
-1.119460 -1.190010 -4.919820 161 153 180
-0.751835 -1.190010 -4.919820 174 173 157
-0.384594 -1.190010 -4.919820 208 184 134
-0.021928 -1.190010 -4.919820 148 204 141
-0.028029 -1.568690 -4.852700 144 230 197
-0.073029 -1.963010 -4.783300 154 196 203
0.291925 -2.048430 -4.768420 234 151 173
0.696921 -2.037380 -4.769950 159 248 162
0.704547 -2.408430 -4.705120 172 142 235
1.102300 -2.412240 -4.703980 176 211 170
1.469920 -2.403470 -4.705120 180 249 139
1.803220 -2.420630 -4.702450 248 137 217
2.172750 -2.427880 -4.701310 209 207 227
2.183810 -2.038520 -4.769950 188 143 226
2.202120 -1.640770 -4.840500 167 194 166
2.573170 -1.268190 -4.905330 207 233 219
2.953000 -1.217090 -4.614740 245 153 178
2.973590 -1.553820 -4.258180 222 196 168
3.004100 -1.894370 -3.924870 236 231 220
3.048340 -2.235300 -3.591950 170 220 150
3.105540 -2.574320 -3.248740 139 221 229
3.105540 -2.961390 -3.177810 147 210 153
3.177610 -2.912580 -2.902090 208 151 180
3.261890 -2.863760 -2.628660 155 163 201
3.359520 -2.816100 -2.359040 249 146 207
3.469350 -2.769950 -2.095150 151 227 222
3.591380 -2.724570 -1.837730 138 218 218
3.725620 -2.679570 -1.584900 163 203 207
3.870910 -2.636860 -1.337020 133 148 221
4.029550 -2.594150 -1.096770 158 230 210
4.199260 -2.552580 -0.862237 248 249 154
4.380020 -2.512160 -0.636476 229 178 157
4.571460 -2.474400 -0.420250 196 245 167
4.770520 -2.437790 -0.212794 217 178 169
4.980650 -2.402330 -0.015254 134 197 150
5.200300 -2.369530 0.172753 153 136 164
5.428350 -2.339020 0.352369 216 179 204
5.665170 -2.308510 0.519401 221 173 138
5.908090 -2.281440 0.676899 222 161 197
6.159790 -2.255890 0.821051 213 139 186
6.416050 -2.232630 0.954142 223 229 206
6.677280 -2.210510 1.076180 130 225 237
6.945750 -2.191060 1.184860 171 216 193
7.219180 -2.173900 1.282490 144 252 155
7.221850 -1.787210 1.214220 197 140 170
7.499860 -1.771190 1.299650 185 189 198
7.783200 -1.758980 1.371720 223 223 133
8.066550 -1.362380 1.360660 208 221 235
8.351030 -1.353610 1.405660 187 138 195
8.631710 -0.960819 1.370200 217 182 140
8.913530 -0.569930 1.320240 247 239 246
9.205260 -0.181714 1.259220 180 133 201
9.205260 -0.117269 1.625320 158 131 158
9.205260 -0.426161 2.057770 183 189 130
9.205260 -0.733530 2.492130 241 164 247
9.205260 -1.037470 2.928020 221 136 156
9.205260 -1.424540 3.006200 175 174 171
9.205260 -1.192680 3.589670 254 171 170
9.205260 -0.905902 3.791020 141 195 202
9.205260 -0.920395 4.046140 234 202 184
9.205260 -0.900945 4.356180 208 238 143
9.205260 -0.900945 4.734480 149 210 146
9.205260 -0.561543 4.742110 194 155 183
9.205260 -0.524931 5.110500 181 195 234
8.829250 -0.524931 5.110500 189 240 215
8.829250 -0.148920 5.110500 219 132 140
8.453240 -0.148920 5.110500 175 255 175
8.077600 -0.148920 5.110500 251 141 138
7.701590 -0.148920 5.110500 162 237 234
7.326720 -0.148920 5.110500 188 220 189
6.950710 -0.148920 5.110500 154 143 141
6.950710 0.227094 5.110500 210 160 193
6.950710 0.603105 5.110500 246 197 142
6.950710 0.979120 5.110500 153 173 195
6.574700 0.603105 5.110500 231 236 140
6.574700 0.227094 5.110500 197 254 180
6.574700 -0.148920 5.110500 204 159 201
6.199830 -0.524931 5.110500 188 140 191
5.828770 -0.900945 5.110500 145 194 199
6.199830 -0.900945 5.110500 166 231 236
6.201350 -1.275810 5.110500 133 218 165
6.195250 -1.596530 5.110500 131 155 224
6.197540 -2.022880 5.110500 145 247 140
6.183050 -2.377920 5.110500 157 209 244
6.118220 -2.751650 5.110500 245 150 138
6.051100 -3.122700 5.110500 212 154 197
6.020590 -3.514350 5.110500 157 166 152
5.576320 -3.526550 5.110500 254 231 198
5.172090 -3.553630 5.110500 212 228 207
4.769380 -3.584140 5.110500 152 205 242
4.366670 -3.615790 5.110500 222 146 234
4.401750 -4.021170 5.110500 210 205 248
4.437220 -4.420060 5.110500 189 161 217
4.472690 -4.815520 5.110500 220 135 227
4.508150 -5.207550 5.110500 231 208 180
4.542090 -5.596910 5.110500 144 213 255
4.577560 -5.982840 5.110500 136 197 241
4.192010 -6.017920 5.110500 132 233 214
3.807610 -6.057210 5.110500 155 146 197
3.423970 -6.098770 5.110500 142 152 235
3.039570 -6.142630 5.110500 239 188 143
2.656310 -6.190300 5.110500 194 157 207
2.273050 -6.240250 5.110500 171 145 159
1.890930 -6.292880 5.110500 252 241 252
1.944700 -6.672330 5.110500 171 221 209
1.564880 -6.729910 4.727240 130 207 242
1.566020 -6.733340 4.343980 201 238 144
1.188860 -6.798170 3.960720 225 132 208
0.814376 -6.858040 3.958430 249 142 210
0.433406 -6.922490 3.948520 150 228 202
0.052435 -6.988470 3.949660 144 163 140
0.052435 -7.425500 4.325670 133 213 131
0.052435 -7.868620 4.337880 199 132 186
0.052435 -8.311760 4.350080 167 172 207
0.052435 -8.306800 4.727240 224 144 210
0.052435 -8.305660 5.110500 157 130 214
-0.297646 -8.261800 5.110500 235 222 142
-0.668700 -8.222520 5.110500 233 227 230
-0.943656 -8.523030 5.110500 144 179 154
-1.290300 -8.523030 5.110500 155 249 215
-1.673560 -8.541330 5.110500 222 233 184
-2.038520 -8.553530 5.110500 189 155 231
-2.380210 -8.586330 5.110500 232 169 154
-2.745160 -8.599680 5.110500 185 232 186
-3.032320 -8.586330 5.110500 208 244 187
-3.345790 -8.253030 5.110500 230 247 217
-3.736680 -7.901420 5.110500 240 221 162
-4.139380 -7.901420 5.110500 216 166 172
-4.139380 -7.498710 5.110500 222 201 213
-4.139380 -7.499860 4.726090 167 173 217
-4.139380 -7.100960 4.336730 233 187 205
-4.139380 -6.696730 4.330630 156 228 216
-4.139380 -6.703980 3.941270 141 249 163
-4.139380 -6.715040 3.550390 188 148 223
-4.139380 -6.728380 3.161030 181 214 254
-4.139380 -6.744400 2.771670 182 137 168
-4.139380 -6.361140 2.361710 194 151 154
-4.139380 -6.382880 1.968540 174 243 200
-4.139380 -6.005720 1.549810 156 212 150
-4.157690 -5.632380 1.523120 216 213 146
-4.212600 -5.263610 1.498710 186 245 234
-4.304130 -4.900940 1.472780 214 207 156
-4.429970 -4.549720 1.449900 252 247 210
-4.589760 -4.212600 1.426640 145 169 152
-4.782720 -3.891510 1.404520 226 180 230
-5.004670 -3.592530 1.383930 144 229 236
-5.256360 -3.315280 1.364100 238 161 243
-5.533230 -3.065120 1.347320 237 213 247
-5.834870 -2.841640 1.332440 218 238 194
-6.155970 -2.650210 1.319100 212 242 157
-6.494230 -2.490420 1.308040 172 192 213
-6.845460 -2.364570 1.299650 144 244 133
-7.209270 -2.274190 1.293550 241 203 203
-7.579180 -2.219280 1.289730 238 223 171
-7.952900 -2.200970 1.288590 194 151 233
-8.203070 -2.177710 1.646300 147 253 155
-8.454380 -2.158260 1.975780 141 207 195
-8.704930 -2.141100 2.291920 248 182 155
-8.955100 -2.126610 2.610730 182 187 172
-8.955100 -2.143390 2.243110 137 142 135
-8.955100 -2.164360 1.875870 145 214 222
-8.955100 -2.186100 1.509390 219 206 255
-8.955100 -2.210510 1.142150 186 242 173
-8.955100 -2.238730 0.776051 164 136 212
-9.205260 -2.238730 0.771093 248 146 158
-9.205260 -2.268090 0.409572 226 227 178
-9.205260 -1.937080 0.016779 240 200 202
-9.205260 -1.971400 -0.347030 160 170 188
-9.205260 -1.644200 -0.747450 185 151 160
-9.205260 -1.225480 -1.146730 172 206 231
-9.205260 -0.785013 -1.543330 149 156 199
-9.205260 -0.407857 -1.957100 144 248 215
-9.205260 -0.076845 -2.385740 157 209 204
-9.205260 0.252643 -2.817810 163 230 202
-8.873110 0.209932 -3.132810 236 247 154
-8.570310 0.167221 -3.426830 244 240 182
-8.317860 0.124510 -3.715130 192 159 192
-8.012780 0.128325 -3.686910 243 187 130
-7.827060 0.076841 -4.022880 150 187 193
-7.673370 0.019637 -4.379060 253 173 172
-7.526930 -0.041378 -4.745160 131 205 152
-7.368290 -0.105063 -5.110500 206 156 164
-7.000670 -0.467349 -5.046810 196 211 179
-6.722280 -0.825055 -4.983510 171 214 236
-6.374490 -0.818956 -4.984650 254 166 251
-5.956910 -0.820480 -4.984650 150 234 212
-5.529790 -1.190010 -4.919820 135 198 137
-5.162170 -1.190010 -4.919820 130 241 241
-4.794930 -1.190010 -4.919820 242 214 225
-4.427300 -1.190010 -4.919820 227 172 185
-4.032990 -1.163320 -4.923630 148 191 167
-3.685190 -1.413480 -4.879780 238 167 193
-3.355710 -1.487850 -4.867580 201 254 224
-2.956430 -1.552680 -4.855370 150 189 133
-2.589190 -1.552680 -4.855370 176 226 237
-2.221570 -1.552680 -4.855370 221 141 163
-1.854320 -1.552680 -4.855370 201 181 146
-1.486700 -1.552680 -4.855370 208 219 233
-1.119460 -1.552680 -4.855370 134 200 139
-0.751835 -1.552680 -4.855370 157 219 155
-0.384594 -1.552680 -4.855370 146 154 170
-0.392983 -1.914200 -4.791690 172 208 235
-0.433407 -2.285250 -4.727240 193 130 206
-0.098961 -2.302410 -4.723420 217 229 206
0.263705 -2.372960 -4.711220 237 206 211
0.706835 -2.840500 -4.628090 198 217 224
1.088950 -2.888170 -4.619700 212 157 178
1.441700 -2.858810 -4.625800 148 140 215
1.792160 -2.816100 -4.633040 215 181 227
2.166650 -2.816100 -4.633040 154 197 255
2.554870 -2.817240 -4.633040 202 231 251
2.556390 -2.430550 -4.701310 210 206 186
2.559820 -2.043470 -4.768420 139 150 187
2.565930 -1.656400 -4.837070 143 193 180
2.945750 -1.655260 -4.837070 249 189 140
2.953000 -1.605300 -4.544950 150 154 200
2.971300 -1.943180 -4.204400 208 170 146
3.002950 -2.284110 -3.868820 146 167 236
3.046810 -2.623130 -3.527120 217 133 133
3.046810 -3.010200 -3.456190 226 201 238
3.048340 -3.396130 -3.384120 191 147 250
3.106680 -3.347320 -3.106110 154 182 169
3.178760 -3.298510 -2.830010 150 235 215
3.263040 -3.250830 -2.556580 173 155 191
3.360660 -3.203170 -2.286970 183 207 199
3.470490 -3.156640 -2.023070 177 242 246
3.592530 -3.111640 -1.765660 194 160 174
3.726760 -3.066260 -1.512820 200 208 147
3.873200 -3.022410 -1.266470 169 254 239
4.031840 -2.980840 -1.025840 210 135 131
4.201930 -2.939270 -0.791305 236 204 131
4.381160 -2.900370 -0.566689 254 204 161
4.571460 -2.861480 -0.350844 146 215 132
4.771670 -2.824860 -0.143388 185 236 137
4.981790 -2.790540 0.054534 174 163 182
5.200300 -2.757750 0.242540 177 196 163
5.428350 -2.725720 0.420631 150 165 246
5.664030 -2.696350 0.588045 175 203 250
5.908090 -2.668510 0.744018 186 146 203
6.158640 -2.642960 0.889313 186 136 177
6.414910 -2.619700 1.022400 230 192 173
6.676140 -2.597580 1.143290 244 249 232
6.944610 -2.579270 1.253120 146 179 191
7.218040 -2.560970 1.349600 147 162 182
7.496420 -2.546480 1.435030 167 220 171
7.498710 -2.159410 1.366770 237 162 171
7.780910 -2.147200 1.438840 160 131 157
8.063880 -2.136140 1.497190 240 154 214
8.066550 -1.749450 1.428930 173 141 240
8.351030 -1.740680 1.474310 248 163 162
8.635140 -1.735720 1.507100 208 207 218
8.636670 -1.347510 1.438840 174 209 240
8.918490 -0.957004 1.388500 176 228 161
9.205260 -0.568788 1.327490 144 174 137
9.205260 -0.496713 1.692820 197 197 189
9.205260 -0.808275 2.130990 221 157 169
9.205260 -1.118320 2.575270 149 222 194
9.205260 -1.534370 2.616840 133 224 148
9.205260 -1.904280 3.066070 227 153 238
9.205260 -1.817720 3.539710 148 172 205
9.205260 -1.743350 3.963010 187 153 230
9.205260 -1.285350 3.999620 252 242 187
9.205260 -1.276960 4.357330 232 165 208
9.205260 -1.276960 4.734480 179 175 177
9.205260 -1.276960 5.110500 196 216 130
9.205260 -0.900945 5.110500 224 161 158
8.829250 -0.900945 5.110500 223 192 153
8.453240 -0.900945 5.110500 197 201 151
8.453240 -0.524931 5.110500 139 207 240
8.077600 -0.524931 5.110500 241 140 242
7.701590 -0.524931 5.110500 137 191 149
7.326720 -0.524931 5.110500 142 245 151
6.950710 -0.524931 5.110500 175 174 229
6.574700 -0.524931 5.110500 194 161 250
6.574700 -0.900945 5.110500 130 142 136
6.574700 -1.275810 5.110500 159 159 247
6.574700 -1.651450 5.110500 155 147 138
6.572410 -2.026320 5.110500 237 179 204
6.567450 -2.398520 5.110500 156 187 147
6.555250 -2.767280 5.110500 248 171 178
6.527030 -3.123850 5.110500 192 192 205
6.474780 -3.514350 5.110500 133 147 151
6.443130 -3.897610 5.110500 203 134 222
6.002290 -3.903710 5.110500 204 205 254
5.603010 -3.929260 5.110500 238 158 172
5.202590 -3.957480 5.110500 202 251 222
4.802170 -3.987990 5.110500 174 159 190
4.835350 -4.387260 5.110500 196 175 237
4.867000 -4.782720 5.110500 202 137 188
4.898660 -5.174370 5.110500 224 130 174
4.930310 -5.564120 5.110500 160 146 243
4.962340 -5.949660 5.110500 241 140 131
4.993990 -6.332920 5.110500 166 207 135
4.610730 -6.366100 5.110500 185 205 147
4.229760 -6.401180 5.110500 246 178 192
3.847650 -6.439320 5.110500 181 209 132
3.465530 -6.480880 5.110500 180 137 229
3.084950 -6.524740 5.110500 141 254 142
2.703980 -6.570890 5.110500 174 203 236
2.324150 -6.621220 5.110500 176 139 145
1.944700 -6.673470 4.727240 153 200 158
1.944700 -6.678430 4.343980 182 158 170
1.945850 -6.685670 3.961860 190 212 192
1.567550 -6.740580 3.960720 134 179 214
1.568690 -6.750500 3.587000 158 199 228
1.191530 -6.807700 3.578610 139 176 213
0.816665 -6.867580 3.560300 227 135 134
0.433406 -6.932410 3.561450 238 233 222
0.052435 -6.999530 3.564110 235 190 190
0.052435 -7.432740 3.942420 150 168 228
0.052435 -7.874730 3.956910 143 175 229
0.052435 -8.317860 3.971780 222 212 142
-0.021928 -8.690060 3.986270 154 202 161
-0.021928 -8.682810 4.361140 202 154 206
-0.021928 -8.677850 4.736010 157 130 191
-0.021928 -8.676710 5.110500 224 155 241
-0.364763 -8.547430 5.110500 220 203 141
-0.654209 -8.523030 5.110500 155 224 243
-0.653066 -8.841450 5.110500 254 217 131
-0.928783 -8.886830 5.110500 169 251 206
-1.281530 -8.892940 5.110500 220 172 152
-1.662500 -8.903990 5.110500 133 253 195
-2.025170 -8.917340 5.110500 133 232 239
-2.407280 -8.931830 5.110500 143 234 143
-2.779480 -8.931830 5.110500 233 248 206
-3.112790 -8.911240 5.110500 205 141 239
-3.350750 -8.571840 5.110500 138 228 137
-3.693580 -8.544760 5.110500 132 157 169
-3.736680 -8.265230 5.110500 165 143 229
-4.139380 -8.305660 5.110500 228 135 168
-4.139380 -8.306800 4.732200 159 174 170
-4.139380 -7.904090 4.729910 170 177 221
-4.139380 -7.504820 4.342840 233 174 195
-4.139380 -7.108210 3.949660 173 231 174
-4.139380 -7.117740 3.562590 246 134 251
-4.139380 -7.131470 3.175900 228 249 242
-4.139380 -7.147110 2.789970 211 238 227
-4.139380 -6.763850 2.382310 229 131 237
-4.139380 -6.785970 1.992940 226 130 232
-4.139380 -6.408810 1.576510 220 131 146
-4.139380 -6.033940 1.154350 230 142 213
-4.157690 -5.661740 1.124990 188 153 163
-4.212600 -5.292980 1.096770 234 143 223
-4.304130 -4.930310 1.070070 190 220 130
-4.429970 -4.578700 1.043380 234 249 199
-4.589760 -4.241970 1.017450 215 166 168
-4.782720 -3.920870 0.993040 171 195 234
-5.004670 -3.621890 0.969778 208 213 209
-5.256360 -3.344650 0.949185 143 209 156
-5.533230 -3.094480 0.930880 245 139 255
-5.834870 -2.872150 0.913719 243 230 187
-6.155970 -2.680710 0.899228 254 211 184
-6.494230 -2.520930 0.887025 252 252 198
-6.845460 -2.395080 0.877109 162 169 254
-7.209270 -2.304700 0.869864 187 185 199
-7.579180 -2.249790 0.866050 190 144 193
-7.952900 -2.231480 0.864906 131 164 146
-8.203070 -2.204410 1.240920 173 187 230
-8.454380 -2.181530 1.586420 202 230 181
-8.704930 -2.161690 1.914770 139 216 188
-8.704930 -2.183810 1.538750 223 218 167
-8.704930 -2.209360 1.162740 243 142 236
-8.704930 -2.237580 0.786729 220 159 194
-8.704930 -2.268090 0.412241 214 255 238
-8.955100 -2.268090 0.409572 233 189 139
-9.205260 -2.299750 0.049576 150 238 173
-9.205260 -2.334070 -0.311565 153 241 151
-9.205260 -2.008010 -0.709696 155 254 150
-9.205260 -1.683480 -1.112400 235 177 229
-9.205260 -1.270860 -1.511680 148 234 138
-9.205260 -0.834973 -1.913240 212 147 233
-9.205260 -0.456671 -2.335780 184 185 167
-9.205260 -0.128325 -2.766710 247 205 240
-9.205260 0.200018 -3.201070 249 166 166
-8.887980 0.156161 -3.498900 132 194 201
-8.610730 0.117265 -3.765090 140 165 240
-8.413200 0.074554 -4.036230 233 255 224
-8.134810 0.075696 -4.026310 244 145 134
-8.004000 0.020783 -4.375630 187 151 166
-7.880830 -0.040233 -4.742870 218 209 224
-7.735530 -0.105063 -5.110500 219 139 247
-7.368290 -0.468872 -5.046810 141 205 220
-7.315660 -0.830012 -4.983510 182 235 176
-6.999520 -0.832682 -4.982360 160 237 242
-6.772240 -1.108400 -4.934690 212 155 203
-6.447710 -1.133950 -4.929740 170 171 170
-6.015640 -1.165600 -4.923630 146 160 225
-6.113260 -1.563730 -4.853850 179 152 159
-5.506530 -1.675850 -4.834400 223 146 156
-5.100010 -1.516060 -4.862620 135 152 223
-4.770520 -1.511110 -4.862620 211 167 141
-4.391840 -1.514920 -4.862620 212 199 168
-3.991800 -1.473350 -4.869860 222 244 219
-3.689010 -1.620940 -4.843170 239 183 249
-3.423970 -1.763950 -4.818760 173 134 164
-2.963680 -1.840980 -4.805030 167 171 250
-2.587660 -1.848220 -4.803890 243 161 142
-2.221570 -1.912670 -4.791690 255 140 170
-1.854320 -1.912670 -4.791690 215 225 184
-1.486700 -1.914200 -4.791690 167 133 212
-1.119460 -1.914200 -4.791690 153 240 237
-0.751835 -1.914200 -4.791690 154 201 166
-0.751835 -2.274190 -4.728380 244 152 243
-0.497855 -2.602540 -4.670800 145 144 190
-0.203833 -2.713510 -4.651350 254 197 136
0.110019 -2.877110 -4.621990 227 191 166
0.216036 -3.256940 -4.554870 243 244 152
0.730098 -3.271430 -4.552580 249 246 242
1.098860 -3.268000 -4.553720 218 226 179
1.462290 -3.256940 -4.554870 213 147 136
1.820000 -3.237490 -4.558680 239 228 203
2.170460 -3.206600 -4.563640 222 203 223
2.553720 -3.205450 -4.564780 189 198 137
2.945750 -3.205450 -4.564780 204 247 203
2.945750 -2.817240 -4.633040 218 135 216
2.945750 -2.430550 -4.701310 187 134 188
2.945750 -2.043470 -4.768420 145 139 170
2.951850 -1.993520 -4.485460 169 237 168
2.971300 -2.332920 -4.146060 234 238 199
3.001810 -2.671940 -3.803980 247 238 133
3.002950 -3.059010 -3.733440 248 144 241
3.002950 -3.446090 -3.662500 161 225 160
3.002950 -3.831640 -3.591950 144 216 217
3.049480 -3.782820 -3.310900 233 164 183
3.107830 -3.734010 -3.032510 251 161 247
3.179900 -3.685190 -2.756790 175 198 148
3.264180 -3.636380 -2.483360 211 239 236
3.362950 -3.590240 -2.214890 211 228 132
3.472780 -3.543710 -1.951000 239 182 238
3.595190 -3.497190 -1.693580 205 177 228
3.729430 -3.453330 -1.440750 229 186 185
3.875870 -3.409480 -1.194390 242 158 246
4.033370 -3.367910 -0.953761 143 143 178
4.203070 -3.326340 -0.721899 246 151 175
4.383450 -3.286300 -0.497283 204 206 132
4.572980 -3.248160 -0.281056 227 133 230
4.773190 -3.211560 -0.073601 209 145 178
4.982930 -3.177620 0.122795 213 251 154
5.201450 -3.144440 0.310802 184 165 139
5.428350 -3.112790 0.488893 130 130 145
5.664030 -3.083420 0.655162 251 173 176
5.906950 -3.055580 0.812661 185 176 224
6.155970 -3.029650 0.956430 138 173 229
6.413770 -3.006770 1.089520 245 187 203
6.674990 -2.985790 1.211550 249 130 149
6.943460 -2.966350 1.320240 195 163 228
7.215750 -2.949190 1.417870 133 155 192
7.494140 -2.934690 1.502140 187 205 203
7.774810 -2.920970 1.574220 241 214 187
7.777100 -2.534280 1.505960 191 251 214
8.060440 -2.524360 1.564310 152 167 201
8.346080 -2.515970 1.610830 215 152 150
8.348370 -2.128900 1.542570 204 231 217
8.634000 -2.122800 1.574220 168 224 211
8.918490 -2.118980 1.593670 130 255 190
8.919630 -1.732290 1.525410 208 166 192
8.920770 -1.345220 1.457150 193 187 170
9.205260 -0.957004 1.396130 215 215 151
9.205260 -0.888740 1.778240 144 250 174
9.205260 -1.275810 1.851460 150 184 245
9.205260 -1.207170 2.225950 182 186 193
9.205260 -1.598060 2.291920 158 204 175
9.205260 -1.981310 2.703400 166 191 179
9.205260 -2.305840 3.133190 187 213 247
9.205260 -2.259700 3.529790 232 152 225
9.205260 -2.176570 3.954620 207 140 156
9.205260 -2.098390 4.317280 227 175 147
9.205260 -1.699120 4.339020 148 241 194
9.205260 -1.651450 4.734480 207 166 161
9.205260 -1.651450 5.110500 180 191 171
8.829250 -1.651450 5.110500 201 203 218
8.829250 -1.276960 5.110500 140 151 174
8.453240 -1.276960 5.110500 189 208 240
8.077600 -1.276960 5.110500 174 254 238
8.077600 -0.900945 5.110500 250 199 185
7.701590 -0.900945 5.110500 230 183 245
7.326720 -0.900945 5.110500 164 200 237
6.950710 -0.900945 5.110500 199 202 213
6.950710 -1.275810 5.110500 169 176 228
6.949570 -1.651450 5.110500 234 168 230
6.949570 -2.027460 5.110500 197 170 205
6.946900 -2.402330 5.110500 182 218 170
6.943460 -2.776050 5.110500 161 203 163
6.932400 -3.147110 5.110500 238 228 196
6.911810 -3.513200 5.110500 135 137 224
6.872530 -3.868240 5.110500 165 175 241
6.822580 -4.264090 5.110500 216 192 160
6.423300 -4.280870 5.110500 196 172 130
6.026690 -4.302990 5.110500 203 226 148
5.628560 -4.327390 5.110500 185 173 219
5.231960 -4.355610 5.110500 252 175 216
5.261320 -4.751070 5.110500 245 204 165
5.290680 -5.143870 5.110500 219 215 245
5.318520 -5.533610 5.110500 158 150 200
5.347890 -5.920300 5.110500 145 152 164
5.376110 -6.303560 5.110500 150 245 154
5.335680 -6.308520 4.713890 220 170 241
4.952430 -6.337880 4.719990 138 222 187
4.611880 -6.367240 4.726090 208 216 201
4.229760 -6.402710 4.726090 250 225 222
3.847650 -6.441610 4.726090 130 227 228
3.466680 -6.482030 4.726090 139 191 149
3.084950 -6.525880 4.727240 230 183 180
2.705120 -6.572410 4.727240 251 187 158
2.324150 -6.622370 4.727240 177 174 155
2.325290 -6.625800 4.343980 164 137 203
2.325290 -6.633430 3.963010 198 210 154
2.005720 -6.685670 3.631230 176 145 234
2.104490 -6.682240 3.306320 168 215 231
1.617500 -6.761560 3.052340 254 205 167
1.106110 -6.835930 3.148820 214 222 145
0.816665 -6.880920 3.172080 219 213 164
0.433406 -6.945750 3.174750 150 247 245
0.052435 -7.012870 3.177040 225 226 190
0.052435 -7.442650 3.559160 233 248 136
0.052435 -7.885790 3.576320 241 250 146
0.052435 -8.328920 3.594620 188 180 143
-0.021928 -8.699970 3.611400 251 219 223
-0.229384 -9.006200 3.620170 239 226 216
-0.230528 -8.996660 3.992370 211 204 162
-0.230528 -8.989420 4.364570 219 234 164
-0.230528 -8.985610 4.738300 215 177 254
-0.230528 -8.984460 5.110500 251 210 250
-0.430737 -8.780440 5.110500 182 208 242
-0.538278 -9.186960 5.110500 186 251 216
-0.900944 -9.259030 5.110500 189 187 243
-1.281530 -9.259030 5.110500 244 198 216
-1.662500 -9.259030 5.110500 234 163 146
-2.043470 -9.259030 5.110500 200 174 238
-2.424440 -9.259030 5.110500 228 187 237
-2.805030 -9.259030 5.110500 238 206 233
-3.186000 -9.259030 5.110500 160 131 201
-3.398420 -8.840310 5.110500 255 198 224
-3.635240 -8.765950 5.110500 181 245 224
-4.067310 -8.669460 5.110500 136 194 246
-4.067310 -8.671750 4.736010 153 189 182
-4.139380 -8.311760 4.355040 213 210 146
-4.139380 -7.907520 4.348940 140 247 164
-4.139380 -7.510920 3.958430 164 134 165
-4.139380 -7.521980 3.574790 183 213 241
-4.139380 -7.534180 3.191530 165 245 130
-4.139380 -7.551340 2.807130 205 187 148
-4.139380 -7.166940 2.402900 231 178 215
-4.139380 -7.188670 2.017350 241 233 163
-4.139380 -6.811520 1.603580 214 233 241
-4.139380 -6.436650 1.184860 146 189 219
-4.139380 -6.065590 0.760034 202 168 138
-4.157690 -5.693390 0.728382 156 160 242
-4.212600 -5.323480 0.696730 217 163 184
-4.304130 -4.962340 0.667366 211 145 211
-4.429970 -4.611880 0.638002 245 229 251
-4.589760 -4.273620 0.608637 226 203 189
-4.782720 -3.953670 0.583087 212 214 195
-5.004670 -3.654690 0.557536 221 223 139
-5.256360 -3.378970 0.534274 195 144 196
-5.533230 -3.127280 0.513300 138 201 151
-5.834870 -2.906470 0.494995 225 136 200
-6.155970 -2.713510 0.479360 151 140 228
-6.494230 -2.554870 0.465631 147 169 243
-6.845460 -2.429020 0.454953 218 136 144
-7.209270 -2.339020 0.447707 167 252 245
-7.579180 -2.284110 0.442750 252 135 185
-7.952900 -2.265800 0.441605 231 239 156
-8.203070 -2.233770 0.834398 234 252 246
-8.454380 -2.207070 1.197060 198 133 230
-8.454380 -2.236440 0.807703 149 182 228
-8.454380 -2.266950 0.418343 245 166 176
-8.704930 -2.300890 0.036228 186 144 196
-8.955100 -2.299750 0.043474 238 147 186
-8.955100 -2.335210 -0.322624 156 152 207
-9.205260 -2.369530 -0.671942 162 168 236
-9.205260 -2.047290 -1.072360 208 203 198
-9.205260 -1.724660 -1.476210 180 140 197
-9.205260 -1.315860 -1.876630 183 169 219
-9.205260 -0.882641 -2.282010 149 152 141
-9.205260 -0.930309 -2.650780 215 222 239
-9.205260 -0.507772 -2.714080 132 217 194
-9.205260 -0.181714 -3.147300 175 233 153
-9.205260 0.143959 -3.584330 207 168 218
-8.905140 0.103918 -3.854320 201 145 149
-8.660690 0.069597 -4.069020 229 249 189
-8.554680 0.026886 -4.336350 183 245 133
-8.305650 0.021925 -4.363430 237 213 201
-8.222520 -0.040233 -4.736770 244 213 215
-8.103160 -0.105063 -5.110500 203 178 245
-7.735530 -0.471160 -5.046810 164 251 139
-7.733240 -0.842217 -4.980840 168 170 172
-7.676800 -1.180480 -4.920960 252 167 215
-7.265710 -1.118320 -4.932020 166 231 234
-7.005630 -1.091240 -4.936980 248 159 226
-7.004480 -1.278100 -4.904190 130 210 198
-6.824860 -1.357420 -4.889310 217 235 212
-6.530840 -1.461150 -4.872150 164 225 148
-6.276860 -1.969110 -4.782150 214 205 193
-5.867670 -2.155590 -4.748980 241 201 242
-5.203740 -1.984750 -4.779480 161 147 207
-5.016880 -1.760130 -4.818760 133 157 156
-4.769380 -1.808940 -4.809990 141 146 144
-4.355610 -1.834880 -4.806560 192 194 182
-3.925830 -1.745640 -4.821050 249 237 172
-3.547140 -2.125090 -4.755080 131 239 253
-2.929740 -2.151020 -4.750120 206 131 224
-2.583090 -2.104490 -4.758890 148 181 249
-2.234910 -2.176570 -4.745160 205 234 242
-1.851650 -2.202120 -4.740590 242 178 136
-1.487840 -2.231480 -4.735630 236 135 140
-1.119460 -2.271910 -4.728380 130 201 196
-0.785013 -2.549910 -4.679570 132 135 153
-0.535991 -2.869870 -4.623130 188 193 192
-0.273239 -2.961390 -4.607490 190 160 165
-0.085232 -3.034610 -4.594150 233 138 139
-0.057394 -3.256940 -4.554870 228 156 140
-0.010869 -3.640200 -4.487750 211 248 212
0.294212 -3.636380 -4.487750 138 219 132
0.731242 -3.637530 -4.487750 230 227 248
1.101150 -3.636380 -4.487750 224 177 151
1.468390 -3.632950 -4.488890 144 177 140
1.836020 -3.625320 -4.490040 139 236 216
2.202120 -3.611980 -4.492710 226 202 136
2.558680 -3.592530 -4.496140 201 140 140
2.945750 -3.592530 -4.496140 139 188 235
2.951850 -3.156640 -4.288680 141 188 191
2.951850 -2.769950 -4.357330 131 221 224
2.951850 -2.381730 -4.422920 208 149 242
2.971300 -2.721140 -4.081230 234 147 208
2.971300 -3.107830 -4.011820 146 206 231
2.971300 -3.494900 -3.942030 236 195 162
2.971300 -3.881970 -3.872630 229 197 160
2.971300 -4.267520 -3.795600 223 207 168
3.005620 -4.217560 -3.512630 140 201 232
3.051770 -4.168750 -3.231580 154 248 153
3.110500 -4.118790 -2.952040 166 178 210
3.183720 -4.069980 -2.675180 153 133 221
3.269140 -4.022310 -2.402900 248 253 233
3.366760 -3.974640 -2.135570 195 137 231
3.477740 -3.928120 -1.873200 191 193 255
3.599770 -3.883120 -1.614260 144 223 168
3.735530 -3.839260 -1.361430 219 238 146
3.881970 -3.795020 -1.116220 137 197 218
4.039470 -3.753840 -0.878253 159 191 213
4.208030 -3.712270 -0.646391 184 210 177
4.388410 -3.672990 -0.422919 167 189 228
4.577560 -3.635240 -0.207837 173 157 214
4.777770 -3.598630 -0.001525 175 234 197
4.986750 -3.564310 0.194871 179 246 194
5.205260 -3.531510 0.382877 148 224 172
5.432170 -3.499860 0.559824 170 191 219
5.666700 -3.470490 0.725713 158 163 164
5.908090 -3.442270 0.880923 173 152 179
6.158640 -3.417870 1.026220 137 232 255
6.413770 -3.393460 1.159310 210 208 201
6.676140 -3.372870 1.280200 131 210 155
6.943460 -3.353420 1.388500 148 212 226
7.215750 -3.336260 1.486510 135 200 237
7.491470 -3.321390 1.570410 150 164 139
7.771000 -3.309180 1.641340 139 223 229
8.054340 -3.298510 1.700070 219 224 235
8.057770 -2.911430 1.632950 140 133 253
8.342260 -2.902660 1.677950 231 182 247
8.629040 -2.898080 1.711130 184 223 182
8.631710 -2.509870 1.642480 135 138 152
8.918490 -2.506060 1.661930 142 180 151
9.205260 -2.506060 1.669560 145 190 228
9.205260 -2.117840 1.600920 176 206 142
9.205260 -1.730770 1.532650 211 223 194
9.205260 -1.344070 1.464390 201 142 155
9.205260 -1.662510 1.919730 220 238 212
9.205260 -2.050720 1.986840 245 226 178
9.205260 -2.038520 2.345700 220 158 217
9.205260 -2.365720 2.768230 252 170 225
9.205260 -2.725720 2.831540 200 160 230
9.205260 -2.663550 3.194200 236 144 217
9.205260 -2.600250 3.558010 199 205 131
9.205260 -2.543810 3.953480 181 141 186
9.205260 -2.468300 4.334060 237 207 151
9.205260 -2.403470 4.734480 178 153 240
9.205260 -2.027460 4.734480 244 249 210
9.205260 -2.027460 5.110500 225 133 180
8.829250 -2.027460 5.110500 189 177 224
8.453240 -2.027460 5.110500 207 165 145
8.453240 -1.651450 5.110500 208 235 171
8.077600 -1.651450 5.110500 230 136 204
7.701590 -1.651450 5.110500 183 246 227
7.701590 -1.276960 5.110500 133 220 214
7.326720 -1.275810 5.110500 181 158 187
7.325580 -1.651450 5.110500 149 196 171
7.325580 -2.027460 5.110500 220 154 183
7.325580 -2.403470 5.110500 240 158 240
7.322910 -2.778340 5.110500 231 195 198
7.319480 -3.153210 5.110500 139 163 224
7.312230 -3.525410 5.110500 210 145 174
7.296210 -3.895320 5.110500 243 229 227
7.269140 -4.259130 5.110500 215 206 247
7.235200 -4.644680 5.110500 254 142 179
6.838590 -4.658020 5.110500 246 240 172
6.444280 -4.677860 5.110500 195 145 178
6.049960 -4.698450 5.110500 201 205 184
5.655640 -4.724000 5.110500 141 246 235
5.681190 -5.117170 5.110500 229 182 172
5.706740 -5.506530 5.110500 203 142 140
5.732290 -5.893610 5.110500 140 196 181
5.758220 -6.276860 5.110500 197 145 149
5.758220 -6.278010 4.726090 150 140 205
5.779960 -6.282960 4.269620 215 135 191
5.227000 -6.324530 4.142630 211 131 202
4.878060 -6.350080 4.298980 251 252 197
4.611880 -6.372200 4.347790 197 182 166
4.161500 -6.413390 4.342840 134 150 170
3.779390 -6.452670 4.345120 214 233 183
3.466680 -6.486990 4.343980 219 134 146
3.086090 -6.530840 4.343980 230 166 149
2.705120 -6.576990 4.343980 215 226 247
2.660120 -6.589190 3.983980 193 189 161
2.620840 -6.601390 3.678900 246 230 136
2.327960 -6.639530 3.683480 178 152 233
2.343980 -6.644100 3.451620 168 228 186
2.329110 -6.661270 3.026790 174 240 144
2.011820 -6.719990 2.697300 154 185 148
1.725040 -6.782150 2.270190 220 232 204
1.201070 -6.849270 2.507010 201 238 212
0.987511 -6.867580 2.836500 134 149 212
0.762894 -6.905330 2.812090 171 217 221
0.433406 -6.961770 2.787680 232 158 235
0.052435 -7.028890 2.789970 243 138 239
0.052435 -7.456000 3.174750 173 224 240
0.052435 -7.899130 3.196490 247 188 183
0.052435 -8.341120 3.218610 232 244 191
-0.021928 -8.713320 3.236910 233 240 229
-0.229384 -9.018400 3.247970 244 133 178
-0.538278 -9.222430 3.256360 154 224 242
-0.538278 -9.210220 3.626280 250 208 217
-0.538278 -9.199160 3.997330 248 252 187
-0.538278 -9.193060 4.368390 181 179 160
-0.538278 -9.188100 4.739440 193 143 253
-0.900944 -9.260180 4.739440 182 151 244
-1.281530 -9.260180 4.739440 174 178 175
-1.662500 -9.260180 4.739440 184 212 210
-2.043470 -9.260180 4.739440 249 138 253
-2.424440 -9.260180 4.739440 144 220 243
-2.805030 -9.260180 4.739440 151 233 151
-3.186000 -9.260180 4.739440 184 231 169
-3.554770 -9.184670 5.110500 210 139 134
-3.861000 -8.978360 5.110500 177 134 135
-3.862140 -8.979500 4.738300 215 210 187
-4.067310 -8.675570 4.361140 185 175 160
-4.139380 -8.317860 3.977880 146 247 211
-4.139380 -7.915150 3.967970 229 131 167
-4.139380 -7.924680 3.587000 210 156 203
-4.139380 -7.938410 3.206410 155 213 225
-4.139380 -7.954050 2.825440 201 248 146
-4.139380 -7.569650 2.423870 142 179 188
-4.139380 -7.591380 2.040610 181 186 146
-4.139380 -7.213080 1.630280 178 241 169
-4.139380 -6.838210 1.214220 174 149 222
-4.139380 -6.467160 0.792831 160 134 213
-4.139380 -6.099920 0.365716 186 202 205
-4.157690 -5.727720 0.330251 179 140 203
-4.212600 -5.358950 0.297454 144 240 215
-4.304130 -4.997430 0.264277 152 148 138
-4.429970 -4.647350 0.231481 254 179 229
-4.589760 -4.310230 0.200972 193 232 151
-4.782720 -3.990660 0.171608 245 171 217
-5.004670 -3.690150 0.144914 209 131 131
-5.256360 -3.414430 0.118982 226 238 253
-5.533230 -3.163890 0.096101 161 241 196
-5.834870 -2.943080 0.076270 133 188 159
-6.155970 -2.750120 0.059491 151 151 187
-6.494230 -2.591480 0.044618 189 213 254
-6.845460 -2.465630 0.032415 170 217 203
-7.209270 -2.375630 0.024025 217 138 228
-7.579180 -2.320720 0.019068 244 172 246
-7.952900 -2.302410 0.017924 166 204 133
-8.203070 -2.266950 0.429021 255 169 193
-8.203070 -2.302410 0.022881 148 229 190
-8.454380 -2.300890 0.028983 181 133 237
-8.704930 -2.336350 -0.338641 159 169 161
-8.955100 -2.371820 -0.689103 234 139 147
-9.205260 -2.408430 -1.031940 175 191 184
-9.205260 -2.448850 -1.391930 144 191 239
-9.205260 -2.088470 -1.434650 211 253 209
-9.205260 -2.131190 -1.796170 134 169 202
-9.205260 -1.768900 -1.841170 255 216 250
-9.205260 -1.361240 -2.241590 130 145 228
-9.205260 -1.407380 -2.603110 247 169 249
-9.205260 -0.977596 -3.019160 193 253 235
-9.205260 -0.560398 -3.092380 169 233 178
-9.205260 -0.236630 -3.527120 130 196 223
-9.205260 0.085613 -3.966440 199 238 218
-8.919630 0.051292 -4.183810 252 225 146
-8.706070 0.034130 -4.290210 156 143 241
-8.907430 0.006290 -4.466010 149 243 130
-8.801030 -0.026886 -4.657450 192 249 221
-8.541330 -0.036803 -4.717320 149 242 229
-8.470400 -0.105063 -5.110500 175 144 181
-8.103160 -0.474975 -5.045670 196 131 203
-8.098200 -0.853277 -4.978550 211 139 230
-8.057770 -1.251410 -4.908760 236 137 188
-7.584140 -1.537040 -4.858800 165 224 247
-7.181430 -1.380690 -4.885880 159 152 230
-7.363330 -1.965300 -4.783300 172 160 202
-6.916390 -2.160550 -4.747830 165 237 189
-6.702830 -2.750120 -4.644100 241 183 234
-6.324530 -2.893130 -4.619700 181 153 179
-5.958050 -3.068930 -4.588040 178 171 144
-5.610260 -3.277530 -4.551050 168 199 240
-5.353990 -2.935840 -4.610930 214 182 140
-4.998570 -3.203170 -4.564780 139 235 203
-4.677470 -2.853850 -4.625800 214 205 181
-4.279720 -3.258080 -4.554870 196 196 223
-3.973500 -3.629140 -4.488890 196 158 188
-3.512060 -3.360660 -4.536560 209 149 250
-3.006390 -3.052910 -4.591480 237 245 239
-2.381350 -2.800460 -4.635330 226 137 141
-1.770050 -2.786730 -4.638000 178 148 244
-1.460010 -2.746690 -4.645250 210 204 130
-1.154920 -2.792830 -4.636860 208 191 152
-1.213270 -3.052910 -4.591480 231 222 243
-0.933741 -3.150540 -4.573170 160 179 242
-0.739633 -3.585280 -4.497660 164 212 221
-0.793403 -4.008960 -4.421780 240 209 160
-0.380781 -4.007440 -4.422920 201 174 207
-0.007056 -4.372390 -4.358470 170 177 168
0.364000 -4.368960 -4.358470 207 187 247
0.733912 -4.366290 -4.359620 243 194 223
1.101150 -4.366290 -4.359620 149 206 179
1.471060 -4.366290 -4.359620 133 242 244
1.839830 -4.366290 -4.359620 251 153 228
2.208220 -4.366290 -4.359620 196 168 204
2.576990 -4.366290 -4.359620 162 220 227
2.945750 -4.366290 -4.359620 206 212 148
2.583090 -4.316330 -4.067880 192 226 224
2.236440 -4.257980 -3.739540 175 238 238
2.273050 -4.201540 -3.423400 208 223 208
2.324150 -4.146630 -3.109540 143 161 170
2.390120 -4.091710 -2.798360 173 213 140
2.470590 -4.036800 -2.490610 255 138 184
2.564780 -3.984550 -2.186670 232 176 245
2.673470 -3.931930 -1.887690 214 217 247
2.796640 -3.879300 -1.594810 179 183 213
2.933550 -3.828200 -1.305370 172 176 160
3.082280 -3.779390 -1.023550 139 203 207
3.245880 -3.730570 -0.748975 221 253 147
3.421680 -3.684050 -0.482791 140 141 132
3.609690 -3.637530 -0.223854 209 208 238
3.809900 -3.593670 0.027457 132 226 231
4.021170 -3.550960 0.268091 248 220 228
4.243110 -3.510920 0.498808 198 132 173
4.476500 -3.471640 0.719611 248 154 173
4.720560 -3.435030 0.929736 156 227 235
4.974540 -3.399560 1.128800 214 231 215
5.235770 -3.366770 1.315280 166 155 183
5.506530 -3.336260 1.489940 177 145 191
5.786060 -3.306890 1.652400 254 137 218
6.071690 -3.281340 1.802650 144 218 230
6.364950 -3.256940 1.938030 133 226 224
6.666220 -3.234820 2.061210 251 173 252
6.969020 -3.215370 2.169890 244 168 138
7.279050 -3.198210 2.265230 236 143 131
7.592910 -3.184860 2.345700 169 146 238
7.910190 -3.172660 2.412810 191 219 223
8.236250 -3.163890 2.465440 229 135 216
8.558490 -3.156640 2.502050 240 141 141
8.592430 -3.221470 2.140530 152 142 211
8.899040 -3.216510 2.161500 157 244 204
8.881880 -3.153210 2.523790 211 148 183
8.863570 -3.089520 2.887600 231 226 180
8.846410 -3.025080 3.250260 232 185 156
8.830770 -2.961390 3.612930 171 165 231
9.205260 -3.316810 3.683480 163 228 246
9.205260 -3.253120 4.042330 163 244 201
9.205260 -3.169990 4.385550 222 212 240
9.205260 -3.155500 4.734480 207 244 217
9.205260 -3.155500 5.110500 201 134 203
8.829250 -3.155500 5.110500 161 136 198
8.829250 -2.779480 5.110500 228 243 164
8.453240 -2.779480 5.110500 194 222 196
8.077600 -2.779480 5.110500 205 219 138
8.077600 -3.155500 5.110500 180 234 135
8.076080 -3.531510 5.110500 136 197 248
8.073790 -3.906380 5.110500 140 179 166
8.069980 -4.280870 5.110500 199 234 206
8.063880 -4.655740 5.110500 177 202 148
8.053200 -5.029460 5.110500 208 246 131
8.039470 -5.405090 5.110500 151 201 241
7.650110 -5.413860 5.110500 172 225 244
7.261890 -5.426070 5.110500 134 131 246
6.872530 -5.442080 5.110500 140 228 253
6.484320 -5.460390 5.110500 169 224 201
6.503760 -5.847080 5.110500 141 154 145
6.524740 -6.231860 5.110500 137 218 169
6.524740 -6.233010 4.724950 144 181 175
