ply
format ascii 1.0
comment author: F. Lafarge
element vertex 1165
property float x
property float y
property float z
property uchar red
property uchar green
property uchar blue
end_header
0.052435 -8.309280 4.538660 218 164 219
0.052435 -8.311760 4.350080 218 164 219
0.052435 -8.314810 4.160930 218 164 219
0.052435 -7.442650 3.559160 218 164 219
0.052435 -7.221090 3.561640 218 164 219
0.052435 -7.772530 3.667850 218 164 219
0.052435 -7.664220 3.567740 218 164 219
0.052435 -7.993810 3.676040 218 164 219
0.052435 -8.317860 3.971780 218 164 219
0.052435 -8.101830 3.775770 218 164 219
0.052435 -7.885790 3.576320 218 164 219
0.052435 -8.323390 3.783200 218 164 219
0.052435 -7.556770 3.468490 218 164 219
0.052435 -7.449330 3.366950 218 164 219
0.052435 -7.227760 3.368100 218 164 219
0.052435 -7.778340 3.477070 218 164 219
0.052435 -7.670890 3.377830 218 164 219
0.052435 -8.215370 3.685190 218 164 219
0.052435 -8.107350 3.585470 218 164 219
0.052435 -8.328920 3.594620 218 164 219
0.052435 -7.892460 3.386410 218 164 219
0.052435 -7.563440 3.276290 218 164 219
0.052435 -7.456000 3.174750 218 164 219
0.052435 -7.234440 3.175890 218 164 219
0.052435 -7.785010 3.287160 218 164 219
0.052435 -7.677560 3.185620 218 164 219
0.052435 -7.899130 3.196490 218 164 219
0.052435 -8.113450 3.397470 218 164 219
0.052435 -8.335020 3.406610 218 164 219
0.052435 -7.570790 3.084940 218 164 219
0.052435 -7.464010 2.982930 218 164 219
0.052435 -7.242440 2.982360 218 164 219
0.052435 -7.792350 3.095810 218 164 219
0.052435 -7.685570 2.995130 218 164 219
0.052435 -8.120120 3.207550 218 164 219
0.052435 -8.341120 3.218610 218 164 219
0.052435 -7.907140 3.006000 218 164 219
0.052435 -8.127950 3.018970 218 164 219
0.052435 -7.578800 2.893120 218 164 219
0.052435 -7.472020 2.791110 218 164 219
0.052435 -7.250460 2.790540 218 164 219
0.052435 -7.800360 2.905330 218 164 219
0.052435 -7.693590 2.803310 218 164 219
0.052435 -7.915150 2.815520 218 164 219
0.052435 -8.135960 2.828480 218 164 219
0.052435 -8.348940 3.030030 218 164 219
0.052435 -7.587380 2.702350 218 164 219
0.052435 -7.481740 2.599480 218 164 219
0.052435 -7.259600 2.597770 218 164 219
0.052435 -7.808950 2.714560 218 164 219
0.052435 -7.702740 2.613600 218 164 219
0.052435 -7.924310 2.625800 218 164 219
0.052435 -8.356760 2.841450 218 164 219
0.052435 -8.145100 2.639910 218 164 219
0.052435 -8.365910 2.652870 218 164 219
0.052435 -7.597100 2.510730 218 164 219
0.052435 -7.491470 2.407860 218 164 219
0.052435 -7.269330 2.406140 218 164 219
0.052435 -7.818100 2.524840 218 164 219
0.052435 -7.712460 2.421970 218 164 219
0.052435 -7.933460 2.436080 218 164 219
0.052435 -8.154260 2.450190 218 164 219
0.052435 -8.375060 2.464300 218 164 219
0.052435 -7.607400 2.319960 218 164 219
0.052435 -7.502530 2.216800 218 164 219
0.052435 -7.280200 2.213180 218 164 219
0.052435 -7.828400 2.334070 218 164 219
0.052435 -7.723330 2.232060 218 164 219
0.052435 -7.944330 2.246160 218 164 219
0.052435 -8.165320 2.261420 218 164 219
0.052435 -8.386120 2.275530 218 164 219
0.052435 -7.618460 2.128900 218 164 219
0.052435 -7.513590 2.025740 218 164 219
0.052435 -7.291260 2.022120 218 164 219
0.052435 -7.839260 2.144150 218 164 219
0.052435 -7.734390 2.041000 218 164 219
0.052435 -7.955190 2.056250 218 164 219
0.052435 -8.176180 2.071500 218 164 219
0.052435 -8.397180 2.086760 218 164 219
0.052435 -7.630090 1.938790 218 164 219
0.052435 -7.525790 1.834680 218 164 219
0.052435 -7.303470 1.829340 218 164 219
0.052435 -7.850890 1.954050 218 164 219
0.052435 -7.746600 1.851850 218 164 219
0.052435 -7.967390 1.867100 218 164 219
0.052435 -8.188390 1.883690 218 164 219
0.052435 -8.409380 1.898940 218 164 219
0.052435 -7.642290 1.747740 218 164 219
0.052435 -7.537990 1.643630 218 164 219
0.052435 -7.315670 1.638290 218 164 219
0.052435 -7.863100 1.764900 218 164 219
0.052435 -7.758800 1.660790 218 164 219
0.052435 -7.979600 1.677950 218 164 219
0.052435 -8.200590 1.694540 218 164 219
0.052435 -8.421590 1.711130 218 164 219
0.052435 -7.655450 1.557350 218 164 219
0.052435 -7.551340 1.452000 218 164 219
0.052435 -7.329780 1.445330 218 164 219
0.052435 -7.876250 1.574510 218 164 219
0.052435 -7.772910 1.471060 218 164 219
0.052435 -8.096860 1.592240 218 164 219
0.052435 -7.993710 1.488230 218 164 219
0.052435 -8.317860 1.608830 218 164 219
0.052435 -8.214130 1.506530 218 164 219
0.052435 -8.435120 1.523120 218 164 219
0.052435 -7.668800 1.365720 218 164 219
0.052435 -7.564690 1.260370 218 164 219
0.052435 -7.343130 1.253700 218 164 219
0.052435 -7.890360 1.384780 218 164 219
0.052435 -7.786250 1.279440 218 164 219
0.052435 -8.110980 1.402520 218 164 219
0.052435 -8.007820 1.298500 218 164 219
0.052435 -8.331390 1.420820 218 164 219
0.052435 -8.228240 1.316810 218 164 219
0.052435 -8.448660 1.335110 218 164 219
0.052435 -7.682810 1.174950 218 164 219
0.052435 -7.580520 1.069310 218 164 219
0.052435 -7.358380 1.061490 218 164 219
0.052435 -7.904380 1.194010 218 164 219
0.052435 -7.800930 1.089520 218 164 219
0.052435 -8.125660 1.213270 218 164 219
0.052435 -8.346080 1.231570 218 164 219
0.052435 -8.243500 1.128040 218 164 219
0.052435 -8.463910 1.146340 218 164 219
0.052435 -7.698640 0.983888 218 164 219
0.052435 -7.596340 0.878253 218 164 219
0.052435 -7.374200 0.870436 218 164 219
0.052435 -7.919060 1.004100 218 164 219
0.052435 -7.816760 0.898465 218 164 219
0.052435 -8.022500 1.108590 218 164 219
0.052435 -8.140340 1.023360 218 164 219
0.052435 -8.361330 1.042810 218 164 219
0.052435 -8.258170 0.938126 218 164 219
0.052435 -8.479170 0.957575 218 164 219
0.052435 -7.714750 0.793498 218 164 219
0.052435 -7.612930 0.687386 218 164 219
0.052435 -7.391370 0.677471 218 164 219
0.052435 -7.935170 0.813710 218 164 219
0.052435 -7.833160 0.708743 218 164 219
0.052435 -8.037180 0.918677 218 164 219
0.052435 -8.376870 0.853942 218 164 219
0.052435 -8.155880 0.834493 218 164 219
0.052435 -8.274570 0.750310 218 164 219
0.052435 -8.495570 0.769759 218 164 219
0.052435 -7.731340 0.602631 218 164 219
0.052435 -7.629520 0.496520 218 164 219
0.052435 -7.407950 0.486605 218 164 219
0.052435 -7.951570 0.623987 218 164 219
0.052435 -7.849750 0.517876 218 164 219
0.052435 -8.053580 0.728955 218 164 219
0.052435 -8.393270 0.666126 218 164 219
0.052435 -8.172280 0.644771 218 164 219
0.052435 -8.290980 0.560587 218 164 219
0.052435 -8.511970 0.581943 218 164 219
0.052435 -7.748790 0.412241 218 164 219
0.052435 -7.647830 0.305463 218 164 219
0.052435 -7.969020 0.433597 218 164 219
0.052435 -7.868060 0.327962 218 164 219
0.052435 -8.069980 0.539232 218 164 219
0.052435 -8.410340 0.477548 218 164 219
0.052435 -8.189340 0.456192 218 164 219
0.052435 -8.308710 0.373153 218 164 219
0.052435 -8.529700 0.394509 218 164 219
0.052435 -7.767090 0.221184 218 164 219
0.052435 -7.666130 0.114406 218 164 219
0.052435 -7.987320 0.243684 218 164 219
0.052435 -7.886360 0.136905 218 164 219
0.052435 -8.088280 0.349318 218 164 219
0.052435 -8.428070 0.290114 218 164 219
0.052435 -8.207650 0.266279 218 164 219
0.052435 -8.327010 0.183240 218 164 219
0.052435 -8.547430 0.207074 218 164 219
0.052435 -7.786070 0.031080 218 164 219
0.052435 -7.685570 -0.076651 218 164 219
0.052435 -8.006290 0.053580 218 164 219
0.052435 -7.906000 -0.052245 218 164 219
0.052435 -8.106590 0.159405 218 164 219
0.052435 -8.446940 0.101153 218 164 219
0.052435 -8.226520 0.077319 218 164 219
0.052435 -8.346460 -0.004767 218 164 219
0.052435 -8.566880 0.019067 218 164 219
0.052435 -7.805510 -0.159977 218 164 219
0.052435 -7.705020 -0.267709 218 164 219
0.052435 -8.025930 -0.135571 218 164 219
0.052435 -7.925440 -0.243303 218 164 219
0.052435 -8.126230 -0.029746 218 164 219
0.052435 -8.466400 -0.086853 218 164 219
0.052435 -8.246160 -0.111832 218 164 219
0.052435 -8.366100 -0.193918 218 164 219
0.052435 -8.586330 -0.168939 218 164 219
0.052435 -7.825620 -0.349795 218 164 219
0.052435 -7.726380 -0.457622 218 164 219
0.052435 -8.046050 -0.325388 218 164 219
0.052435 -7.946230 -0.431881 218 164 219
0.052435 -8.145870 -0.218896 218 164 219
0.052435 -8.486610 -0.275431 218 164 219
0.052435 -8.266380 -0.300410 218 164 219
0.052435 -8.386880 -0.381924 218 164 219
0.052435 -8.607110 -0.356946 218 164 219
0.052435 -7.846980 -0.539708 218 164 219
0.052435 -7.747740 -0.647535 218 164 219
0.052435 -8.066840 -0.513967 218 164 219
0.052435 -7.967590 -0.621794 218 164 219
0.052435 -8.166660 -0.407474 218 164 219
0.052435 -8.507390 -0.463438 218 164 219
0.052435 -8.287160 -0.488988 218 164 219
0.052435 -8.407670 -0.570503 218 164 219
0.052435 -8.627900 -0.544952 218 164 219
0.052435 -7.868910 -0.728954 218 164 219
0.052435 -7.769670 -0.838023 218 164 219
0.052435 -8.088760 -0.703213 218 164 219
0.052435 -7.990080 -0.810373 218 164 219
0.052435 -8.187440 -0.596053 218 164 219
0.052435 -8.528750 -0.651444 218 164 219
0.052435 -8.308520 -0.676995 218 164 219
0.052435 -8.429600 -0.757937 218 164 219
0.052435 -8.649820 -0.732386 218 164 219
0.052435 -7.890840 -0.919441 218 164 219
0.052435 -7.791590 -1.028510 218 164 219
0.052435 -7.570790 -1.044910 218 164 219
0.052435 -8.111260 -0.891791 218 164 219
0.052435 -8.012010 -1.000860 218 164 219
0.052435 -8.209940 -0.784632 218 164 219
0.052435 -8.550670 -0.838879 218 164 219
0.052435 -8.331010 -0.865574 218 164 219
0.052435 -8.452090 -0.946516 218 164 219
0.052435 -8.671750 -0.919821 218 164 219
0.052435 -7.913720 -1.109360 218 164 219
0.052435 -7.816000 -1.218810 218 164 219
0.052435 -8.134140 -1.081710 218 164 219
0.052435 -8.035850 -1.190200 218 164 219
0.052435 -8.232430 -0.973210 218 164 219
0.052435 -8.573840 -1.026500 218 164 219
0.052435 -8.354180 -1.053200 218 164 219
0.052435 -8.475920 -1.133190 218 164 219
0.052435 -8.695580 -1.106490 218 164 219
0.052435 -7.938130 -1.299650 218 164 219
0.052435 -7.840410 -1.409100 218 164 219
0.052435 -7.618840 -1.426830 218 164 219
0.052435 -8.157970 -1.271040 218 164 219
0.052435 -8.060260 -1.380490 218 164 219
0.052435 -8.256260 -1.162550 218 164 219
0.052435 -8.597670 -1.213170 218 164 219
0.052435 -8.378010 -1.242540 218 164 219
0.052435 -8.499760 -1.322520 218 164 219
0.052435 -8.719420 -1.293160 218 164 219
0.052435 -7.962820 -1.489090 218 164 219
0.052435 -7.865570 -1.599580 218 164 219
0.052435 -7.644590 -1.619030 218 164 219
0.052435 -8.182670 -1.460480 218 164 219
0.052435 -8.085240 -1.569070 218 164 219
0.052435 -8.280100 -1.351890 218 164 219
0.052435 -8.622080 -1.401560 218 164 219
0.052435 -8.402420 -1.430920 218 164 219
0.052435 -8.524740 -1.509960 218 164 219
0.052435 -8.744400 -1.480600 218 164 219
0.052435 -7.987990 -1.679570 218 164 219
0.052435 -7.890740 -1.790070 218 164 219
0.052435 -7.669750 -1.809520 218 164 219
0.052435 -8.207650 -1.649060 218 164 219
0.052435 -8.110400 -1.759560 218 164 219
0.052435 -8.305080 -1.540470 218 164 219
0.052435 -8.647060 -1.589000 218 164 219
0.052435 -8.427400 -1.619500 218 164 219
0.052435 -8.549720 -1.698540 218 164 219
0.052435 -8.769380 -1.668030 218 164 219
0.052435 -8.014010 -1.868820 218 164 219
0.052435 -8.123840 -1.853560 218 164 219
0.052435 -7.917630 -1.979790 218 164 219
0.052435 -7.697200 -2.000580 218 164 219
0.052435 -8.137290 -1.947570 218 164 219
0.052435 -8.330060 -1.729050 218 164 219
0.052435 -8.672700 -1.776620 218 164 219
0.052435 -8.453040 -1.807130 218 164 219
0.052435 -8.576030 -1.885220 218 164 219
0.052435 -8.795690 -1.854700 218 164 219
0.052435 -8.040900 -2.058540 218 164 219
0.052435 -7.944520 -2.169510 218 164 219
0.052435 -7.724090 -2.190300 218 164 219
0.052435 -8.260560 -2.026310 218 164 219
0.052435 -8.164180 -2.137290 218 164 219
0.052435 -8.356950 -1.917060 218 164 219
0.052435 -8.699020 -1.963300 218 164 219
0.052435 -8.589480 -1.979220 218 164 219
0.052435 -8.602910 -2.073220 218 164 219
0.052435 -8.822000 -2.041380 218 164 219
0.052435 -8.068360 -2.247690 218 164 219
0.052435 -8.383830 -2.105060 218 164 219
0.052435 -8.288020 -2.215460 218 164 219
0.052435 -7.973120 -2.359430 218 164 219
0.052435 -7.752130 -2.381920 218 164 219
0.052435 -8.192210 -2.325870 218 164 219
0.052435 -8.726190 -2.150730 218 164 219
0.052435 -8.507100 -2.182570 218 164 219
0.052435 -8.630370 -2.260080 218 164 219
0.052435 -8.849460 -2.228240 218 164 219
0.052435 -8.096960 -2.437600 218 164 219
0.052435 -8.001720 -2.549340 218 164 219
0.052435 -7.780720 -2.571840 218 164 219
0.052435 -8.316050 -2.404040 218 164 219
0.052435 -8.411860 -2.293640 218 164 219
0.052435 -8.220800 -2.515780 218 164 219
0.052435 -8.535130 -2.371150 218 164 219
0.052435 -8.753650 -2.337590 218 164 219
0.052435 -8.658400 -2.448660 218 164 219
0.052435 -8.876920 -2.415100 218 164 219
0.052435 -8.125940 -2.626560 218 164 219
0.052435 -8.439890 -2.482220 218 164 219
0.052435 -8.345030 -2.593000 218 164 219
0.052435 -8.031650 -2.739060 218 164 219
0.052435 -7.810660 -2.762900 218 164 219
0.052435 -8.250170 -2.703790 218 164 219
0.052435 -8.782630 -2.524930 218 164 219
0.052435 -8.564120 -2.558490 218 164 219
0.052435 -8.688340 -2.634760 218 164 219
0.052435 -8.906850 -2.601200 218 164 219
0.052435 -8.155880 -2.816280 218 164 219
0.052435 -8.061590 -2.928780 218 164 219
0.052435 -7.840600 -2.952620 218 164 219
0.052435 -8.374390 -2.781010 218 164 219
0.052435 -8.280100 -2.893510 218 164 219
0.052435 -8.469250 -2.670220 218 164 219
0.052435 -8.812570 -2.711030 218 164 219
0.052435 -8.593480 -2.746500 218 164 219
0.052435 -8.717710 -2.822770 218 164 219
0.052435 -8.936790 -2.787300 218 164 219
0.052435 -8.186390 -3.004760 218 164 219
0.052435 -8.498620 -2.858230 218 164 219
0.052435 -8.092670 -3.118120 218 164 219
0.052435 -7.871680 -3.143100 218 164 219
0.052435 -8.404900 -2.969490 218 164 219
0.052435 -8.311190 -3.080750 218 164 219
0.052435 -8.842500 -2.898080 218 164 219
0.052435 -8.623420 -2.933550 218 164 219
0.052435 -8.748210 -3.008870 218 164 219
0.052435 -8.967300 -2.973400 218 164 219
0.052435 -8.217470 -3.194110 218 164 219
0.052435 -8.123750 -3.307460 218 164 219
0.052435 -7.902760 -3.332440 218 164 219
0.052435 -8.435980 -3.156740 218 164 219
0.052435 -8.342260 -3.270090 218 164 219
0.052435 -8.529700 -3.045470 218 164 219
0.052435 -8.873010 -3.084180 218 164 219
0.052435 -8.654500 -3.120790 218 164 219
0.052435 -8.779300 -3.196110 218 164 219
0.052435 -8.997810 -3.159500 218 164 219
0.052435 -8.249210 -3.382780 218 164 219
0.052435 -8.030700 -3.421290 218 164 219
0.052435 -8.156160 -3.496610 218 164 219
0.052435 -8.467730 -3.345410 218 164 219
0.052435 -7.937650 -3.535130 218 164 219
0.052435 -8.560780 -3.232720 218 164 219
0.052435 -8.374680 -3.458100 218 164 219
0.052435 -8.904380 -3.270950 218 164 219
0.052435 -8.685860 -3.307560 218 164 219
0.052435 -8.810950 -3.382400 218 164 219
0.052435 -8.593200 -3.420720 218 164 219
-8.955100 -2.335210 -0.322624 224 195 253
-8.830020 -2.318050 -0.143198 224 195 253
-8.830020 -2.354080 -0.513872 224 195 253
-8.704930 -2.336350 -0.338641 224 195 253
-8.704930 -2.318620 -0.151206 224 195 253
-8.704930 -2.355230 -0.526075 224 195 253
-8.955100 -2.371820 -0.689103 224 195 253
-8.579650 -2.355810 -0.536371 224 195 253
-8.704930 -2.374110 -0.713509 224 195 253
-8.830020 -2.392420 -0.883785 224 195 253
-8.454380 -2.357710 -0.553342 224 195 253
-8.454380 -2.337500 -0.359233 224 195 253
-8.704930 -2.394320 -0.900754 224 195 253
-8.328730 -2.359040 -0.564973 224 195 253
-8.454380 -2.377920 -0.747450 224 195 253
-8.579650 -2.396230 -0.917725 224 195 253
-8.955100 -2.410720 -1.054060 224 195 253
-8.203070 -2.360950 -0.584612 224 195 253
-8.203070 -2.340170 -0.382496 224 195 253
-8.454380 -2.398710 -0.941560 224 195 253
-8.704930 -2.414530 -1.088000 224 195 253
-8.328730 -2.400610 -0.961200 224 195 253
-8.830020 -2.433410 -1.253510 224 195 253
-8.704930 -2.435890 -1.274860 224 195 253
-8.203070 -2.381730 -0.786729 224 195 253
-8.454380 -2.419490 -1.135670 224 195 253
-8.579650 -2.438360 -1.298700 224 195 253
-8.203070 -2.404230 -0.989224 224 195 253
-8.454380 -2.441990 -1.329210 224 195 253
-8.955100 -2.452290 -1.419010 224 195 253
-8.203070 -2.426730 -1.191720 224 195 253
-8.328730 -2.445610 -1.357230 224 195 253
-8.704930 -2.457240 -1.461720 224 195 253
-8.830020 -2.476880 -1.622840 224 195 253
-8.704930 -2.479930 -1.648400 224 195 253
-8.454380 -2.464490 -1.522740 224 195 253
-8.579650 -2.483550 -1.678900 224 195 253
-8.203640 -2.449990 -1.393260 224 195 253
-8.454380 -2.488320 -1.715510 224 195 253
-8.204210 -2.473260 -1.594810 224 195 253
-8.329290 -2.492710 -1.751550 224 195 253
-8.955100 -2.496520 -1.783960 224 195 253
-8.204210 -2.498240 -1.796170 224 195 253
-8.704930 -2.502620 -1.835070 224 195 253
-8.830020 -2.522640 -1.990850 224 195 253
-8.704930 -2.526260 -2.020600 224 195 253
-8.454380 -2.512160 -1.908280 224 195 253
-8.579650 -2.531030 -2.057200 224 195 253
-8.078550 -2.503000 -1.835260 224 195 253
-8.454380 -2.537140 -2.099910 224 195 253
-7.952900 -2.482790 -1.672990 224 195 253
-8.204210 -2.523220 -1.997520 224 195 253
-8.329290 -2.542670 -2.144530 224 195 253
-7.952900 -2.509110 -1.883500 224 195 253
-8.955100 -2.542670 -2.146630 224 195 253
-7.952900 -2.535420 -2.094000 224 195 253
-8.204210 -2.549530 -2.198300 224 195 253
-8.704930 -2.549910 -2.206120 224 195 253
-8.830020 -2.570690 -2.357520 224 195 253
-8.454380 -2.562120 -2.291540 224 195 253
-8.704930 -2.575080 -2.389930 224 195 253
-8.579650 -2.581190 -2.432640 224 195 253
-8.454380 -2.587850 -2.481450 224 195 253
-8.078550 -2.555630 -2.246540 224 195 253
-8.204210 -2.575840 -2.399080 224 195 253
-8.329290 -2.594720 -2.535220 224 195 253
-7.952900 -2.563450 -2.304510 224 195 253
-8.955100 -2.591480 -2.508910 224 195 253
-7.952900 -2.591480 -2.515020 224 195 253
-7.766040 -2.600630 -2.513880 224 195 253
-8.204210 -2.603870 -2.598150 224 195 253
-8.704930 -2.600250 -2.573740 224 195 253
-8.829440 -2.620840 -2.720180 224 195 253
-8.704170 -2.625800 -2.754310 224 195 253
-8.454380 -2.613590 -2.671370 224 195 253
-8.578890 -2.632470 -2.803120 224 195 253
-8.455150 -2.640480 -2.856900 224 195 253
-8.204210 -2.631900 -2.797220 224 195 253
-8.078550 -2.611690 -2.656120 224 195 253
-7.952900 -2.621410 -2.725720 224 195 253
-8.330060 -2.649640 -2.919830 224 195 253
-7.766040 -2.630570 -2.724380 224 195 253
-8.953950 -2.641430 -2.866620 224 195 253
-7.952900 -2.651350 -2.936410 224 195 253
-7.766040 -2.660500 -2.935080 224 195 253
-8.205540 -2.659930 -2.992470 224 195 253
-8.703400 -2.651350 -2.934880 224 195 253
-8.826770 -2.672710 -3.077120 224 195 253
-8.701690 -2.676900 -3.108970 224 195 253
-8.455910 -2.667370 -3.042430 224 195 253
-8.577940 -2.684910 -3.162740 224 195 253
-8.457050 -2.693490 -3.217660 224 195 253
-8.206880 -2.687960 -3.187720 224 195 253
-8.079890 -2.669660 -3.062060 224 195 253
-7.952900 -2.682430 -3.146350 224 195 253
-7.766040 -2.691580 -3.145010 224 195 253
-8.332540 -2.703790 -3.290310 224 195 253
-8.079890 -2.700740 -3.272000 224 195 253
-8.950140 -2.694060 -3.219370 224 195 253
-7.952900 -2.713510 -3.356280 224 195 253
-7.766040 -2.722660 -3.354950 224 195 253
-7.579180 -2.731810 -3.353610 224 195 253
-8.209940 -2.717330 -3.375730 224 195 253
-8.699970 -2.702450 -3.283060 224 195 253
-8.820100 -2.724570 -3.423970 224 195 253
-8.695010 -2.728190 -3.446660 224 195 253
-8.458190 -2.719610 -3.392890 224 195 253
-8.574120 -2.736770 -3.501570 224 195 253
-8.335590 -2.733150 -3.478310 224 195 253
-8.460670 -2.744020 -3.548480 224 195 253
-8.082950 -2.730100 -3.460000 224 195 253
-8.212990 -2.746690 -3.563730 224 195 253
-7.952900 -2.746500 -3.566220 224 195 253
-7.766040 -2.755650 -3.565070 224 195 253
-7.394230 -2.759270 -3.349420 224 195 253
-7.579180 -2.764800 -3.563730 224 195 253
-8.082950 -2.763080 -3.669940 224 195 253
-8.940220 -2.746690 -3.564880 224 195 253
-7.952900 -2.779480 -3.776150 224 195 253
-7.766040 -2.788630 -3.775010 224 195 253
-7.394230 -2.791680 -3.559350 224 195 253
-7.579180 -2.797790 -3.773860 224 195 253
-8.222710 -2.774150 -3.734570 224 195 253
-8.463150 -2.768430 -3.704070 224 195 253
-8.690060 -2.753930 -3.610260 224 195 253
-8.928780 -2.773570 -3.734010 224 195 253
-8.803700 -2.777190 -3.756700 224 195 253
-8.673660 -2.778340 -3.761460 224 195 253
-8.347790 -2.785020 -3.804750 224 195 253
-8.474210 -2.803890 -3.923730 224 195 253
-8.092670 -2.790540 -3.840790 224 195 253
-8.232430 -2.801600 -3.905420 224 195 253
-7.952900 -2.814380 -3.986090 224 195 253
-7.766040 -2.823530 -3.984180 224 195 253
-7.579180 -2.832690 -3.983030 224 195 253
-8.092670 -2.825440 -4.050720 224 195 253
-8.917340 -2.800460 -3.903140 224 195 253
-7.952900 -2.849270 -4.196020 224 195 253
-8.127370 -2.846790 -4.180770 224 195 253
-7.766040 -2.858430 -4.194110 224 195 253
-7.579180 -2.867580 -4.192200 224 195 253
-8.388020 -2.824100 -4.044620 224 195 253
-8.301840 -2.844310 -4.165510 224 195 253
-8.657260 -2.802750 -3.912670 224 195 253
-8.511390 -2.829630 -4.078170 224 195 253
-8.602920 -2.829060 -4.072650 224 195 253
-8.891030 -2.829060 -4.076470 224 195 253
-8.760990 -2.830200 -4.081230 224 195 253
-8.548580 -2.855370 -4.232620 224 195 253
-8.706650 -2.856520 -4.241200 224 195 253
-8.127370 -2.882640 -4.390120 224 195 253
-7.766040 -2.894280 -4.403470 224 195 253
-7.574410 -2.904190 -4.401570 224 195 253
-8.336160 -2.882640 -4.390120 224 195 253
-8.864720 -2.857660 -4.249790 224 195 253
-8.668130 -2.888170 -4.423680 224 195 253
-8.826200 -2.889310 -4.432270 224 195 253
-9.034990 -2.889310 -4.432270 224 195 253
-0.900944 -9.260180 4.739440 238 166 142
-0.900944 -9.262660 4.554490 238 166 142
-0.900944 -9.259610 4.924970 238 166 142
-1.091240 -9.260180 4.739440 238 166 142
-1.091240 -9.262660 4.554490 238 166 142
-0.900944 -9.265140 4.369530 238 166 142
-1.281530 -9.260180 4.739440 238 166 142
-1.091240 -9.265140 4.369530 238 166 142
-1.281530 -9.262660 4.554490 238 166 142
-0.900944 -9.268190 4.184000 238 166 142
-1.091240 -9.268190 4.184000 238 166 142
-1.281530 -9.265140 4.369530 238 166 142
-1.472020 -9.260180 4.739440 238 166 142
-1.472020 -9.262660 4.554490 238 166 142
-1.281530 -9.268190 4.184000 238 166 142
-1.472020 -9.265140 4.369530 238 166 142
-0.900944 -9.271240 3.998470 238 166 142
-1.091240 -9.271240 3.998470 238 166 142
-1.662500 -9.260180 4.739440 238 166 142
-1.662500 -9.262660 4.554490 238 166 142
-1.281530 -9.271240 3.998470 238 166 142
-1.472020 -9.268190 4.184000 238 166 142
-1.662500 -9.265140 4.369530 238 166 142
-0.900944 -9.276200 3.813520 238 166 142
-1.091240 -9.276200 3.813520 238 166 142
-1.281530 -9.276200 3.813520 238 166 142
-1.472020 -9.271240 3.998470 238 166 142
-1.662500 -9.268190 4.184000 238 166 142
-1.852990 -9.260180 4.739440 238 166 142
-1.852990 -9.262660 4.554490 238 166 142
-1.852990 -9.265140 4.369530 238 166 142
-1.472020 -9.276200 3.813520 238 166 142
-1.662500 -9.271240 3.998470 238 166 142
-1.852990 -9.268190 4.184000 238 166 142
-0.900944 -9.281150 3.628560 238 166 142
-1.091240 -9.281150 3.628560 238 166 142
-1.281530 -9.281150 3.628560 238 166 142
-2.043470 -9.260180 4.739440 238 166 142
-2.043470 -9.262660 4.554490 238 166 142
-2.043470 -9.265140 4.369530 238 166 142
-1.472020 -9.281150 3.628560 238 166 142
-1.662500 -9.276200 3.813520 238 166 142
-1.852990 -9.271240 3.998470 238 166 142
-2.043470 -9.268190 4.184000 238 166 142
-0.900944 -9.287820 3.443610 238 166 142
-1.091240 -9.287820 3.443610 238 166 142
-1.281530 -9.287820 3.443610 238 166 142
-1.472020 -9.287820 3.443610 238 166 142
-1.662500 -9.281150 3.628560 238 166 142
-1.852990 -9.276200 3.813520 238 166 142
-2.043470 -9.271240 3.998470 238 166 142
-2.233950 -9.260180 4.739440 238 166 142
-2.233950 -9.262660 4.554490 238 166 142
-2.233950 -9.265140 4.369530 238 166 142
-2.233950 -9.268190 4.184000 238 166 142
-1.662500 -9.287820 3.443610 238 166 142
-1.852990 -9.281150 3.628560 238 166 142
-2.043470 -9.276200 3.813520 238 166 142
-2.233950 -9.271240 3.998470 238 166 142
-0.900944 -9.294500 3.258650 238 166 142
-1.091240 -9.294500 3.258650 238 166 142
-1.281530 -9.294500 3.258650 238 166 142
-1.472020 -9.294500 3.258650 238 166 142
-2.424440 -9.260180 4.739440 238 166 142
-2.424440 -9.262660 4.554490 238 166 142
-2.424440 -9.265140 4.369530 238 166 142
-2.424440 -9.268190 4.184000 238 166 142
-1.662500 -9.294500 3.258650 238 166 142
-1.852990 -9.287820 3.443610 238 166 142
-2.043470 -9.281150 3.628560 238 166 142
-2.233950 -9.276200 3.813520 238 166 142
-2.424440 -9.271240 3.998470 238 166 142
-0.900944 -9.301740 3.073700 238 166 142
-1.091240 -9.301740 3.073700 238 166 142
-1.281530 -9.301740 3.073700 238 166 142
-1.472020 -9.301740 3.073700 238 166 142
-1.662500 -9.301740 3.073700 238 166 142
-1.852990 -9.294500 3.258650 238 166 142
-2.043470 -9.287820 3.443610 238 166 142
-2.233950 -9.281150 3.628560 238 166 142
-2.424440 -9.276200 3.813520 238 166 142
-2.614740 -9.260180 4.739440 238 166 142
-2.614740 -9.262660 4.554490 238 166 142
-2.614740 -9.265140 4.369530 238 166 142
-2.614740 -9.268190 4.184000 238 166 142
-2.614740 -9.271240 3.998470 238 166 142
-1.852990 -9.301740 3.073700 238 166 142
-2.043470 -9.294500 3.258650 238 166 142
-2.233950 -9.287820 3.443610 238 166 142
-2.424440 -9.281150 3.628560 238 166 142
-2.614740 -9.276200 3.813520 238 166 142
-0.900944 -9.308990 2.888740 238 166 142
-1.091240 -9.308990 2.888740 238 166 142
-1.281530 -9.308990 2.888740 238 166 142
-1.472020 -9.308990 2.888740 238 166 142
-1.662500 -9.308990 2.888740 238 166 142
-2.805030 -9.260180 4.739440 238 166 142
-2.805030 -9.262660 4.554490 238 166 142
-2.805030 -9.265140 4.369530 238 166 142
-2.805030 -9.268190 4.184000 238 166 142
-2.805030 -9.271240 3.998470 238 166 142
-1.852990 -9.308990 2.888740 238 166 142
-2.043470 -9.301740 3.073700 238 166 142
-2.233950 -9.294500 3.258650 238 166 142
-2.424440 -9.287820 3.443610 238 166 142
-2.614740 -9.281150 3.628560 238 166 142
-2.805030 -9.276200 3.813520 238 166 142
-0.900944 -9.318140 2.703970 238 166 142
-1.091240 -9.318140 2.703970 238 166 142
-1.281530 -9.318140 2.703970 238 166 142
-1.472020 -9.318140 2.703970 238 166 142
-1.662500 -9.318140 2.703970 238 166 142
-1.852990 -9.318140 2.703970 238 166 142
-2.043470 -9.308990 2.888740 238 166 142
-2.233950 -9.301740 3.073700 238 166 142
-2.424440 -9.294500 3.258650 238 166 142
-2.614740 -9.287820 3.443610 238 166 142
-2.805030 -9.281150 3.628560 238 166 142
-2.995510 -9.260180 4.739440 238 166 142
-2.995510 -9.262660 4.554490 238 166 142
-2.995510 -9.265140 4.369530 238 166 142
-2.995510 -9.268190 4.184000 238 166 142
-2.995510 -9.271240 3.998470 238 166 142
-2.995510 -9.276200 3.813520 238 166 142
-2.043470 -9.318140 2.703970 238 166 142
-2.233950 -9.308990 2.888740 238 166 142
-2.424440 -9.301740 3.073700 238 166 142
-2.614740 -9.294500 3.258650 238 166 142
-2.805030 -9.287820 3.443610 238 166 142
-2.995510 -9.281150 3.628560 238 166 142
-0.900944 -9.327290 2.519210 238 166 142
-1.091240 -9.327290 2.519210 238 166 142
-1.281530 -9.327290 2.519210 238 166 142
-1.472020 -9.327290 2.519210 238 166 142
-1.662500 -9.327290 2.519210 238 166 142
-1.852990 -9.327290 2.519210 238 166 142
-2.043470 -9.327290 2.519210 238 166 142
-2.233950 -9.318140 2.703970 238 166 142
-2.424440 -9.308990 2.888740 238 166 142
-2.614740 -9.301740 3.073700 238 166 142
-2.805030 -9.294500 3.258650 238 166 142
-2.995510 -9.287820 3.443610 238 166 142
-0.900944 -9.338350 2.334250 238 166 142
-1.091240 -9.338350 2.334250 238 166 142
-1.281530 -9.338350 2.334250 238 166 142
-1.472020 -9.338350 2.334250 238 166 142
-1.662500 -9.338350 2.334250 238 166 142
-1.852990 -9.338350 2.334250 238 166 142
-2.043470 -9.338350 2.334250 238 166 142
-2.233950 -9.327290 2.519210 238 166 142
-2.424440 -9.318140 2.703970 238 166 142
-2.614740 -9.308990 2.888740 238 166 142
-2.805030 -9.301740 3.073700 238 166 142
-2.995510 -9.294500 3.258650 238 166 142
-2.233950 -9.338350 2.334250 238 166 142
-2.424440 -9.327290 2.519210 238 166 142
-2.614740 -9.318140 2.703970 238 166 142
-2.805030 -9.308990 2.888740 238 166 142
-2.995510 -9.301740 3.073700 238 166 142
-0.900944 -9.349410 2.149300 238 166 142
-1.091240 -9.349410 2.149300 238 166 142
-1.281530 -9.349410 2.149300 238 166 142
-1.472020 -9.349410 2.149300 238 166 142
-1.662500 -9.349410 2.149300 238 166 142
-1.852990 -9.349410 2.149300 238 166 142
-2.043470 -9.349410 2.149300 238 166 142
-2.233950 -9.349410 2.149300 238 166 142
-2.424440 -9.338350 2.334250 238 166 142
-2.614740 -9.327290 2.519210 238 166 142
-2.805030 -9.318140 2.703970 238 166 142
-2.995510 -9.308990 2.888740 238 166 142
-0.900944 -9.361050 1.964340 238 166 142
-1.091240 -9.361050 1.964340 238 166 142
-1.281530 -9.361050 1.964340 238 166 142
-1.472020 -9.361050 1.964340 238 166 142
-1.662500 -9.361050 1.964340 238 166 142
-1.852990 -9.361050 1.964340 238 166 142
-2.043470 -9.361050 1.964340 238 166 142
-2.233950 -9.361050 1.964340 238 166 142
-2.424440 -9.349410 2.149300 238 166 142
-2.614740 -9.338350 2.334250 238 166 142
-2.805030 -9.327290 2.519210 238 166 142
-2.995510 -9.318140 2.703970 238 166 142
-2.424440 -9.361050 1.964340 238 166 142
-2.614740 -9.349410 2.149300 238 166 142
-2.805030 -9.338350 2.334250 238 166 142
-2.995510 -9.327290 2.519210 238 166 142
-0.900944 -9.372680 1.779390 238 166 142
-1.091240 -9.372680 1.779390 238 166 142
-1.281530 -9.372680 1.779390 238 166 142
-1.472020 -9.372680 1.779390 238 166 142
-1.662500 -9.372680 1.779390 238 166 142
-1.852990 -9.372680 1.779390 238 166 142
-2.043470 -9.372680 1.779390 238 166 142
-2.233950 -9.372680 1.779390 238 166 142
-2.424440 -9.372680 1.779390 238 166 142
-2.614740 -9.361050 1.964340 238 166 142
-2.805030 -9.349410 2.149300 238 166 142
-2.995510 -9.338350 2.334250 238 166 142
-0.900944 -9.386030 1.594430 238 166 142
-1.091240 -9.386030 1.594430 238 166 142
-1.281530 -9.386030 1.594430 238 166 142
-1.472020 -9.386030 1.594430 238 166 142
-1.662500 -9.386030 1.594430 238 166 142
-1.852990 -9.386030 1.594430 238 166 142
-2.043470 -9.386030 1.594430 238 166 142
-2.233950 -9.386030 1.594430 238 166 142
-2.424440 -9.386030 1.594430 238 166 142
-2.614740 -9.372680 1.779390 238 166 142
-2.805030 -9.361050 1.964340 238 166 142
-2.995510 -9.349410 2.149300 238 166 142
-2.614740 -9.386030 1.594430 238 166 142
-2.805030 -9.372680 1.779390 238 166 142
-2.995510 -9.361050 1.964340 238 166 142
-0.900944 -9.399370 1.409480 238 166 142
-1.091240 -9.399370 1.409480 238 166 142
-1.281530 -9.399370 1.409480 238 166 142
-1.472020 -9.399370 1.409480 238 166 142
-1.662500 -9.399370 1.409480 238 166 142
-1.852990 -9.399370 1.409480 238 166 142
-2.043470 -9.399370 1.409480 238 166 142
-2.233950 -9.399370 1.409480 238 166 142
-2.424440 -9.399370 1.409480 238 166 142
-2.614740 -9.399370 1.409480 238 166 142
-2.805030 -9.386030 1.594430 238 166 142
-2.995510 -9.372680 1.779390 238 166 142
-0.900944 -9.414060 1.225090 238 166 142
-1.091240 -9.414060 1.225090 238 166 142
-1.281530 -9.414060 1.225090 238 166 142
-1.472020 -9.414060 1.225090 238 166 142
-1.662500 -9.414060 1.225090 238 166 142
-1.852990 -9.414060 1.225090 238 166 142
-2.043470 -9.414060 1.225090 238 166 142
-2.233950 -9.414060 1.225090 238 166 142
-2.424440 -9.414060 1.225090 238 166 142
-2.614740 -9.414060 1.225090 238 166 142
-2.805030 -9.399370 1.409480 238 166 142
-2.995510 -9.386030 1.594430 238 166 142
-2.805030 -9.414060 1.225090 238 166 142
-2.995510 -9.399370 1.409480 238 166 142
-0.900944 -9.428740 1.040710 238 166 142
-2.995510 -9.414060 1.225090 238 166 142
-0.900944 -9.444570 0.855754 238 166 142
-0.900944 -9.460390 0.670798 238 166 142
-0.900944 -9.478120 0.486605 238 166 142
-0.900944 -9.495850 0.302412 238 166 142
-0.900944 -9.514730 0.118600 238 166 142
-0.900944 -9.533610 -0.065211 238 166 142
-0.900944 -9.554390 -0.249595 238 166 142
-0.900944 -9.575180 -0.433978 238 166 142
-0.900944 -9.596530 -0.617599 238 166 142
-0.900944 -9.617890 -0.801220 238 166 142
-0.900944 -9.641150 -0.985030 238 166 142
-0.900944 -9.664410 -1.168840 238 166 142
-0.900944 -9.688810 -1.352470 238 166 142
-0.900944 -9.713220 -1.536090 238 166 142
-3.186000 -9.260180 4.739440 241 207 176
-3.186000 -9.262660 4.554490 241 207 176
-3.186000 -9.259610 4.924970 241 207 176
-3.186000 -9.265140 4.369530 241 207 176
-3.186000 -9.268190 4.184000 241 207 176
-3.186000 -9.271240 3.998470 241 207 176
-3.186000 -9.276200 3.813520 241 207 176
-3.186000 -9.281150 3.628560 241 207 176
-3.186000 -9.287820 3.443610 241 207 176
-3.186000 -9.294500 3.258650 241 207 176
-3.186000 -9.301740 3.073700 241 207 176
-3.186000 -9.308990 2.888740 241 207 176
-3.186000 -9.318140 2.703970 241 207 176
-3.186000 -9.327290 2.519210 241 207 176
-3.186000 -9.338350 2.334250 241 207 176
-3.186000 -9.349410 2.149300 241 207 176
-3.186000 -9.361050 1.964340 241 207 176
-3.186000 -9.372680 1.779390 241 207 176
-3.186000 -9.386030 1.594430 241 207 176
-3.186000 -9.399370 1.409480 241 207 176
-3.186000 -9.414060 1.225090 241 207 176
-3.186000 -9.428740 1.040710 241 207 176
-3.370390 -9.392130 1.037660 241 207 176
-2.995510 -9.428740 1.040710 241 207 176
-3.186000 -9.444570 0.855754 241 207 176
-2.995510 -9.444570 0.855754 241 207 176
-2.805030 -9.428740 1.040710 241 207 176
-3.186000 -9.460390 0.670798 241 207 176
-2.995510 -9.460390 0.670798 241 207 176
-2.805030 -9.444570 0.855754 241 207 176
-2.614740 -9.428740 1.040710 241 207 176
-2.805030 -9.460390 0.670798 241 207 176
-2.614740 -9.444570 0.855754 241 207 176
-3.186000 -9.478120 0.486605 241 207 176
-2.995510 -9.478120 0.486605 241 207 176
-2.805030 -9.478120 0.486605 241 207 176
-2.614740 -9.460390 0.670798 241 207 176
-2.424440 -9.428740 1.040710 241 207 176
-2.424440 -9.444570 0.855754 241 207 176
-3.186000 -9.495850 0.302412 241 207 176
-2.995510 -9.495850 0.302412 241 207 176
-2.805030 -9.495850 0.302412 241 207 176
-2.614740 -9.478120 0.486605 241 207 176
-2.424440 -9.460390 0.670798 241 207 176
-2.233950 -9.428740 1.040710 241 207 176
-2.233950 -9.444570 0.855754 241 207 176
-2.614740 -9.495850 0.302412 241 207 176
-2.424440 -9.478120 0.486605 241 207 176
-2.233950 -9.460390 0.670798 241 207 176
-3.186000 -9.514730 0.118600 241 207 176
-2.995510 -9.514730 0.118600 241 207 176
-2.805030 -9.514730 0.118600 241 207 176
-2.614740 -9.514730 0.118600 241 207 176
-2.424440 -9.495850 0.302412 241 207 176
-2.233950 -9.478120 0.486605 241 207 176
-2.043470 -9.428740 1.040710 241 207 176
-2.043470 -9.444570 0.855754 241 207 176
-2.043470 -9.460390 0.670798 241 207 176
-3.186000 -9.533610 -0.065211 241 207 176
-2.995510 -9.533610 -0.065211 241 207 176
-2.805030 -9.533610 -0.065211 241 207 176
-2.614740 -9.533610 -0.065211 241 207 176
-2.424440 -9.514730 0.118600 241 207 176
-2.233950 -9.495850 0.302412 241 207 176
-2.043470 -9.478120 0.486605 241 207 176
-1.852990 -9.428740 1.040710 241 207 176
-1.852990 -9.444570 0.855754 241 207 176
-1.852990 -9.460390 0.670798 241 207 176
-2.424440 -9.533610 -0.065211 241 207 176
-2.233950 -9.514730 0.118600 241 207 176
-2.043470 -9.495850 0.302412 241 207 176
-1.852990 -9.478120 0.486605 241 207 176
-3.186000 -9.554390 -0.249595 241 207 176
-2.995510 -9.554390 -0.249595 241 207 176
-2.805030 -9.554390 -0.249595 241 207 176
-2.614740 -9.554390 -0.249595 241 207 176
-2.424440 -9.554390 -0.249595 241 207 176
-2.233950 -9.533610 -0.065211 241 207 176
-2.043470 -9.514730 0.118600 241 207 176
-1.852990 -9.495850 0.302412 241 207 176
-1.662500 -9.428740 1.040710 241 207 176
-1.662500 -9.444570 0.855754 241 207 176
-1.662500 -9.460390 0.670798 241 207 176
-1.662500 -9.478120 0.486605 241 207 176
-3.186000 -9.575180 -0.433978 241 207 176
-2.995510 -9.575180 -0.433978 241 207 176
-2.805030 -9.575180 -0.433978 241 207 176
-2.614740 -9.575180 -0.433978 241 207 176
-2.424440 -9.575180 -0.433978 241 207 176
-2.233950 -9.554390 -0.249595 241 207 176
-2.043470 -9.533610 -0.065211 241 207 176
-1.852990 -9.514730 0.118600 241 207 176
-1.662500 -9.495850 0.302412 241 207 176
-1.472020 -9.428740 1.040710 241 207 176
-1.472020 -9.444570 0.855754 241 207 176
-1.472020 -9.460390 0.670798 241 207 176
-1.472020 -9.478120 0.486605 241 207 176
-2.233950 -9.575180 -0.433978 241 207 176
-2.043470 -9.554390 -0.249595 241 207 176
-1.852990 -9.533610 -0.065211 241 207 176
-1.662500 -9.514730 0.118600 241 207 176
-1.472020 -9.495850 0.302412 241 207 176
-3.186000 -9.596530 -0.617599 241 207 176
-2.995510 -9.596530 -0.617599 241 207 176
-2.805030 -9.596530 -0.617599 241 207 176
-2.614740 -9.596530 -0.617599 241 207 176
-2.424440 -9.596530 -0.617599 241 207 176
-2.233950 -9.596530 -0.617599 241 207 176
-2.043470 -9.575180 -0.433978 241 207 176
-1.852990 -9.554390 -0.249595 241 207 176
-1.662500 -9.533610 -0.065211 241 207 176
-1.472020 -9.514730 0.118600 241 207 176
-1.281530 -9.428740 1.040710 241 207 176
-1.281530 -9.444570 0.855754 241 207 176
-1.281530 -9.460390 0.670798 241 207 176
-1.281530 -9.478120 0.486605 241 207 176
-1.281530 -9.495850 0.302412 241 207 176
-3.186000 -9.617890 -0.801220 241 207 176
-2.995510 -9.617890 -0.801220 241 207 176
-2.805030 -9.617890 -0.801220 241 207 176
-2.614740 -9.617890 -0.801220 241 207 176
-2.424440 -9.617890 -0.801220 241 207 176
-2.233950 -9.617890 -0.801220 241 207 176
-2.043470 -9.596530 -0.617599 241 207 176
-1.852990 -9.575180 -0.433978 241 207 176
-1.662500 -9.554390 -0.249595 241 207 176
-1.472020 -9.533610 -0.065211 241 207 176
-1.281530 -9.514730 0.118600 241 207 176
-1.091240 -9.428740 1.040710 241 207 176
-1.091240 -9.444570 0.855754 241 207 176
-1.091240 -9.460390 0.670798 241 207 176
-1.091240 -9.478120 0.486605 241 207 176
-1.091240 -9.495850 0.302412 241 207 176
-2.043470 -9.617890 -0.801220 241 207 176
-1.852990 -9.596530 -0.617599 241 207 176
-1.662500 -9.575180 -0.433978 241 207 176
-1.472020 -9.554390 -0.249595 241 207 176
-1.281530 -9.533610 -0.065211 241 207 176
-1.091240 -9.514730 0.118600 241 207 176
-3.186000 -9.641150 -0.985030 241 207 176
-1.852990 -9.617890 -0.801220 241 207 176
-1.662500 -9.596530 -0.617599 241 207 176
-1.472020 -9.575180 -0.433978 241 207 176
-1.281530 -9.554390 -0.249595 241 207 176
-1.091240 -9.533610 -0.065211 241 207 176
-3.186000 -9.664410 -1.168840 241 207 176
-1.662500 -9.617890 -0.801220 241 207 176
-1.472020 -9.596530 -0.617599 241 207 176
-1.281530 -9.575180 -0.433978 241 207 176
-1.091240 -9.554390 -0.249595 241 207 176
-1.472020 -9.617890 -0.801220 241 207 176
-1.281530 -9.596530 -0.617599 241 207 176
-1.091240 -9.575180 -0.433978 241 207 176
-3.186000 -9.688810 -1.352470 241 207 176
-1.281530 -9.617890 -0.801220 241 207 176
-1.091240 -9.596530 -0.617599 241 207 176
-3.186000 -9.713220 -1.536090 241 207 176
-1.091240 -9.617890 -0.801220 241 207 176
-3.186000 -9.739350 -1.719900 241 207 176
-3.186000 -9.765470 -1.903710 241 207 176
-2.995510 -9.765470 -1.903710 241 207 176
-3.186000 -9.792360 -2.086760 241 207 176
-3.278190 -9.774050 -2.089530 241 207 176
-3.186000 -9.819240 -2.269810 241 207 176
-3.186000 -9.848610 -2.452860 241 207 176
2.583090 -4.316330 -4.067880 164 162 186
2.593380 -4.289440 -3.917820 164 162 186
2.398710 -4.315180 -4.062350 164 162 186
2.409770 -4.287150 -3.903710 164 162 186
2.603680 -4.262560 -3.767760 164 162 186
2.420060 -4.260270 -3.753650 164 162 186
2.214320 -4.314040 -4.056820 164 162 186
2.225380 -4.286010 -3.898180 164 162 186
2.621410 -4.236440 -3.617500 164 162 186
2.438360 -4.232050 -3.595580 164 162 186
2.236440 -4.257980 -3.739540 164 162 186
2.030120 -4.312700 -4.051870 164 162 186
2.254750 -4.229760 -3.581470 164 162 186
2.041570 -4.283530 -3.884070 164 162 186
2.052630 -4.255510 -3.725430 164 162 186
2.639150 -4.210320 -3.467250 164 162 186
2.456100 -4.205930 -3.445320 164 162 186
2.273050 -4.201540 -3.423400 164 162 186
2.071700 -4.226140 -3.558780 164 162 186
1.845930 -4.311370 -4.046910 164 162 186
1.857370 -4.282200 -3.879110 164 162 186
1.868810 -4.253030 -3.711320 164 162 186
2.663560 -4.184010 -3.318900 164 162 186
2.481650 -4.178480 -3.288390 164 162 186
2.298600 -4.174080 -3.266470 164 162 186
2.090000 -4.197920 -3.400710 164 162 186
1.887880 -4.223660 -3.544670 164 162 186
1.661550 -4.310800 -4.042140 164 162 186
1.673180 -4.279720 -3.865770 164 162 186
2.116700 -4.168560 -3.235960 164 162 186
1.906950 -4.194300 -3.378020 164 162 186
1.684620 -4.250550 -3.697970 164 162 186
1.704640 -4.220040 -3.522740 164 162 186
2.687960 -4.157690 -3.170560 164 162 186
2.506050 -4.152160 -3.140050 164 162 186
2.324150 -4.146630 -3.109540 164 162 186
2.142250 -4.141100 -3.079030 164 162 186
1.933650 -4.164930 -3.213280 164 162 186
1.723710 -4.190680 -3.356090 164 162 186
1.477170 -4.310230 -4.037370 164 162 186
1.488800 -4.279150 -3.861000 164 162 186
1.500430 -4.248070 -3.684620 164 162 186
1.520450 -4.217560 -3.509390 164 162 186
2.719230 -4.131370 -3.022980 164 162 186
2.539040 -4.124700 -2.984460 164 162 186
2.357140 -4.119170 -2.953950 164 162 186
2.177140 -4.112500 -2.914860 164 162 186
1.960340 -4.135570 -3.048530 164 162 186
1.751930 -4.159590 -3.182760 164 162 186
1.540470 -4.187050 -3.334160 164 162 186
1.995240 -4.106970 -2.884350 164 162 186
1.778620 -4.130230 -3.018020 164 162 186
1.568690 -4.155970 -3.160830 164 162 186
1.338540 -4.212030 -3.478880 164 162 186
1.359900 -4.179610 -3.295830 164 162 186
2.750500 -4.105060 -2.875390 164 162 186
2.570310 -4.098380 -2.836880 164 162 186
2.390120 -4.091710 -2.798360 164 162 186
2.210130 -4.085040 -2.759270 164 162 186
2.030130 -4.078370 -2.720180 164 162 186
1.815240 -4.100300 -2.845270 164 162 186
1.596910 -4.124890 -2.987510 164 162 186
1.388120 -4.148540 -3.122510 164 162 186
2.788830 -4.079510 -2.729520 164 162 186
2.610550 -4.070930 -2.683000 164 162 186
2.430350 -4.064250 -2.644480 164 162 186
2.252260 -4.056440 -2.597580 164 162 186
2.072270 -4.049770 -2.558490 164 162 186
1.850130 -4.071700 -2.681100 164 162 186
1.633520 -4.094960 -2.814760 164 162 186
1.893980 -4.041190 -2.510820 164 162 186
1.670130 -4.065020 -2.642010 164 162 186
2.827150 -4.053960 -2.583660 164 162 186
2.648870 -4.045380 -2.537130 164 162 186
2.470590 -4.036800 -2.490610 164 162 186
2.292500 -4.028980 -2.443710 164 162 186
2.114410 -4.021170 -2.396800 164 162 186
1.936130 -4.012590 -2.349130 164 162 186
1.713990 -4.034510 -2.471730 164 162 186
2.871770 -4.028410 -2.439510 164 162 186
2.695970 -4.019260 -2.385160 164 162 186
2.517680 -4.010670 -2.338640 164 162 186
2.341880 -4.000770 -2.283720 164 162 186
2.163790 -3.992950 -2.236820 164 162 186
1.988560 -3.983230 -2.180760 164 162 186
1.757840 -4.004000 -2.301460 164 162 186
1.810280 -3.974640 -2.133090 164 162 186
2.916390 -4.002860 -2.295360 164 162 186
2.740590 -3.993700 -2.241010 164 162 186
2.564780 -3.984550 -2.186670 164 162 186
2.388980 -3.974640 -2.131760 164 162 186
2.213180 -3.964730 -2.076840 164 162 186
2.037950 -3.955000 -2.020780 164 162 186
1.862710 -3.945280 -1.964720 164 162 186
1.636950 -3.963580 -2.070160 164 162 186
2.968250 -3.978260 -2.153690 164 162 186
2.794930 -3.967390 -2.091520 164 162 186
2.619130 -3.958240 -2.037180 164 162 186
2.446370 -3.946610 -1.974260 164 162 186
2.270570 -3.936700 -1.919340 164 162 186
2.097820 -3.925640 -1.855280 164 162 186
1.922590 -3.915910 -1.799220 164 162 186
1.752320 -3.903140 -1.728280 164 162 186
3.020120 -3.953670 -2.012010 164 162 186
2.846800 -3.942800 -1.949850 164 162 186
2.673470 -3.931930 -1.887690 164 162 186
2.500710 -3.920300 -1.824770 164 162 186
2.327960 -3.908670 -1.761850 164 162 186
2.155210 -3.897610 -1.697780 164 162 186
1.982460 -3.886550 -1.633710 164 162 186
3.078660 -3.928690 -1.873010 164 162 186
2.908380 -3.916490 -1.803410 164 162 186
2.735060 -3.905620 -1.741250 164 162 186
2.565360 -3.892840 -1.669750 164 162 186
2.392600 -3.881210 -1.606830 164 162 186
2.222900 -3.869000 -1.534950 164 162 186
2.050150 -3.857950 -1.470870 164 162 186
1.883500 -3.844030 -1.392130 164 162 186
3.137190 -3.903710 -1.734010 164 162 186
2.966920 -3.891510 -1.664410 164 162 186
2.796640 -3.879300 -1.594810 164 162 186
2.626940 -3.866520 -1.523310 164 162 186
2.457240 -3.853750 -1.451810 164 162 186
2.287540 -3.841540 -1.379930 164 162 186
2.117840 -3.829340 -1.308040 164 162 186
3.202020 -3.879870 -1.597290 164 162 186
3.035370 -3.865950 -1.519690 164 162 186
2.865100 -3.853750 -1.450090 164 162 186
2.698450 -3.840220 -1.371340 164 162 186
2.528740 -3.827440 -1.299840 164 162 186
2.363240 -3.813520 -1.219950 164 162 186
2.193530 -3.801310 -1.148060 164 162 186
2.030700 -3.786060 -1.061880 164 162 186
3.266850 -3.856040 -1.460580 164 162 186
3.100200 -3.842120 -1.382970 164 162 186
2.933550 -3.828200 -1.305370 164 162 186
2.766900 -3.814670 -1.226620 164 162 186
2.600250 -3.801130 -1.147870 164 162 186
2.434740 -3.787210 -1.067980 164 162 186
2.269230 -3.773290 -0.988083 164 162 186
3.337590 -3.832400 -1.327480 164 162 186
3.174560 -3.817720 -1.242060 164 162 186
3.007920 -3.803790 -1.164460 164 162 186
2.846220 -3.788540 -1.078270 164 162 186
2.679570 -3.775010 -0.999523 164 162 186
2.517870 -3.759750 -0.912385 164 162 186
2.352360 -3.745830 -0.832491 164 162 186
2.193150 -3.729240 -0.739632 164 162 186
3.408330 -3.808750 -1.194390 164 162 186
3.245300 -3.794070 -1.108970 164 162 186
3.082280 -3.779390 -1.023550 164 162 186
2.920580 -3.764130 -0.937364 164 162 186
2.758890 -3.748880 -0.851177 164 162 186
2.597190 -3.733620 -0.764038 164 162 186
2.435500 -3.718370 -0.676899 164 162 186
3.485750 -3.786060 -1.064350 164 162 186
3.327110 -3.769660 -0.971683 164 162 186
3.164080 -3.754980 -0.886263 164 162 186
3.006010 -3.738390 -0.792831 164 162 186
2.844320 -3.723140 -0.706645 164 162 186
2.686820 -3.706740 -0.611307 164 162 186
2.525120 -3.691480 -0.524168 164 162 186
2.370100 -3.673750 -0.423300 164 162 186
3.563160 -3.763370 -0.934312 164 162 186
3.404520 -3.746970 -0.841644 164 162 186
3.245880 -3.730570 -0.748975 164 162 186
3.087810 -3.713990 -0.655544 164 162 186
2.929740 -3.697400 -0.562113 164 162 186
2.772240 -3.681000 -0.466775 164 162 186
2.614740 -3.664600 -0.371437 164 162 186
3.646300 -3.740870 -0.807894 164 162 186
3.492420 -3.723710 -0.708551 164 162 186
3.333780 -3.707310 -0.615883 164 162 186
3.179900 -3.689010 -0.514443 164 162 186
3.021840 -3.672420 -0.421012 164 162 186
2.869290 -3.654690 -0.319192 164 162 186
2.711790 -3.638290 -0.223854 164 162 186
2.562310 -3.619420 -0.117075 164 162 186
3.729430 -3.718370 -0.681476 164 162 186
3.575560 -3.701210 -0.582133 164 162 186
3.421680 -3.684050 -0.482791 164 162 186
3.267800 -3.665750 -0.381351 164 162 186
3.113930 -3.647440 -0.279912 164 162 186
2.961390 -3.629710 -0.178091 164 162 186
2.808850 -3.611980 -0.076271 164 162 186
3.818480 -3.697020 -0.558871 164 162 186
3.669560 -3.677950 -0.452665 164 162 186
3.515690 -3.660790 -0.353322 164 162 186
3.366770 -3.641910 -0.245209 164 162 186
3.212890 -3.623610 -0.143770 164 162 186
3.060350 -3.605880 -0.041949 164 162 186
2.913150 -3.587000 0.067118 164 162 186
2.768430 -3.566980 0.180761 164 162 186
3.907520 -3.675660 -0.436266 164 162 186
3.758610 -3.656590 -0.330060 164 162 186
3.609690 -3.637530 -0.223854 164 162 186
3.460770 -3.618650 -0.115741 164 162 186
3.311850 -3.599770 -0.007627 164 162 186
3.164650 -3.580900 0.101439 164 162 186
3.017450 -3.562020 0.210506 164 162 186
4.002670 -3.654880 -0.317856 164 162 186
3.858710 -3.634670 -0.204404 164 162 186
3.709790 -3.615600 -0.098198 164 162 186
3.566410 -3.595580 0.016017 164 162 186
3.417490 -3.576700 0.124130 164 162 186
3.270290 -3.557830 0.233197 164 162 186
3.128040 -3.537040 0.349128 164 162 186
2.988460 -3.515690 0.468872 164 162 186
4.097820 -3.634090 -0.199447 164 162 186
3.953860 -3.613880 -0.085995 164 162 186
3.809900 -3.593670 0.027457 164 162 186
3.666510 -3.573650 0.141672 164 162 186
3.523120 -3.553630 0.255887 164 162 186
3.380870 -3.532850 0.371818 164 162 186
3.238630 -3.512060 0.487749 164 162 186
4.197930 -3.613310 -0.085232 164 162 186
4.059500 -3.592530 0.034322 164 162 186
3.915540 -3.572310 0.147774 164 162 186
3.778240 -3.550960 0.268662 164 162 186
3.634860 -3.530940 0.382877 164 162 186
3.492610 -3.510160 0.498808 164 162 186
3.355710 -3.488800 0.620841 164 162 186
3.222040 -3.466870 0.746496 164 162 186
4.298030 -3.592530 0.028983 164 162 186
4.159600 -3.571750 0.148537 164 162 186
4.021170 -3.550960 0.268091 164 162 186
3.883880 -3.529610 0.388979 164 162 186
3.746590 -3.508250 0.509867 164 162 186
3.609690 -3.486890 0.631900 164 162 186
