ply
format ascii 1.0
comment author: F. Lafarge
element vertex 1188
property float x
property float y
property float z
property uchar red
property uchar green
property uchar blue
end_header
-0.030318 -5.993710 5.110500 137 171 217
-0.178663 -6.024790 5.110500 137 171 217
-0.344742 -6.054730 5.110500 137 171 217
0.143578 -5.979030 5.110500 137 171 217
0.826961 -5.712850 5.110500 137 171 217
0.314424 -5.977690 5.110500 137 171 217
0.495758 -5.947750 5.110500 137 171 217
0.666603 -5.925250 5.110500 137 171 217
-2.702640 -6.083900 5.110500 137 171 217
-2.580610 -6.196210 5.110500 137 171 217
-2.952620 -6.111920 5.110500 137 171 217
-3.540660 -5.842880 5.110500 137 171 217
-3.430740 -5.944800 5.110500 137 171 217
-3.320810 -6.046710 5.110500 137 171 217
-3.194200 -6.146820 5.110500 137 171 217
-2.826010 -6.212030 5.110500 137 171 217
-3.067600 -6.246920 5.110500 137 171 217
-1.305170 -5.940890 5.110500 137 171 217
-1.423010 -5.983320 5.110500 137 171 217
-0.920964 -6.010110 5.110500 137 171 217
-1.140050 -6.070550 5.110500 137 171 217
-1.540850 -6.025740 5.110500 137 171 217
-0.529126 -6.100490 5.110500 137 171 217
-0.716560 -6.137100 5.110500 137 171 217
-1.973310 -6.210320 5.110500 137 171 217
-1.792350 -6.225280 5.110500 137 171 217
-0.935646 -6.197540 5.110500 137 171 217
-1.128420 -6.237780 5.110500 137 171 217
1.006960 -5.677380 5.110500 137 171 217
1.199930 -5.639620 5.110500 137 171 217
0.857472 -5.891700 5.110500 137 171 217
1.037470 -5.856240 5.110500 137 171 217
1.392890 -5.601870 5.110500 137 171 217
0.323576 -6.162070 5.110500 137 171 217
0.504910 -6.132140 5.110500 137 171 217
0.149680 -6.176760 5.110500 137 171 217
0.686243 -6.102200 5.110500 137 171 217
-0.024216 -6.191440 5.110500 137 171 217
8.077600 -1.464200 5.110500 137 171 217
8.265420 -1.276960 5.110500 137 171 217
7.889600 -1.651450 5.110500 137 171 217
7.701590 -1.839460 5.110500 137 171 217
7.513590 -2.027460 5.110500 137 171 217
8.453240 -1.088950 5.110500 137 171 217
7.325580 -2.215470 5.110500 137 171 217
7.136240 -2.402900 5.110500 137 171 217
6.945180 -2.589190 5.110500 137 171 217
6.555250 -2.767280 5.110500 137 171 217
6.749360 -2.771660 5.110500 137 171 217
6.322620 -2.937750 5.110500 137 171 217
6.541140 -2.945560 5.110500 137 171 217
6.051100 -3.122700 5.110500 137 171 217
8.641240 -0.900945 5.110500 137 171 217
8.829250 -0.712938 5.110500 137 171 217
6.289060 -3.123280 5.110500 137 171 217
5.807030 -3.319670 5.110500 137 171 217
6.035850 -3.318520 5.110500 137 171 217
5.798460 -3.520450 5.110500 137 171 217
7.701590 -2.027460 5.110500 137 171 217
7.889600 -1.839460 5.110500 137 171 217
7.513590 -2.215470 5.110500 137 171 217
8.077600 -1.651450 5.110500 137 171 217
8.265420 -1.464200 5.110500 137 171 217
7.325580 -2.403470 5.110500 137 171 217
7.134900 -2.590340 5.110500 137 171 217
6.943460 -2.776050 5.110500 137 171 217
6.743830 -2.957200 5.110500 137 171 217
6.527030 -3.123850 5.110500 137 171 217
6.937930 -2.961580 5.110500 137 171 217
7.133180 -2.777190 5.110500 137 171 217
7.324240 -2.590900 5.110500 137 171 217
7.513590 -2.403470 5.110500 137 171 217
8.453240 -1.276960 5.110500 137 171 217
8.641240 -1.088950 5.110500 137 171 217
8.077600 -1.839460 5.110500 137 171 217
7.889600 -2.027460 5.110500 137 171 217
7.701590 -2.215470 5.110500 137 171 217
8.265420 -1.651450 5.110500 137 171 217
8.453240 -1.464200 5.110500 137 171 217
8.641240 -1.276960 5.110500 137 171 217
8.829250 -0.900945 5.110500 137 171 217
8.829250 -1.088950 5.110500 137 171 217
5.589670 -3.727910 5.110500 137 171 217
5.202590 -3.957480 5.110500 137 171 217
5.402800 -3.943370 5.110500 137 171 217
5.018970 -4.172370 5.110500 137 171 217
5.789300 -3.715130 5.110500 137 171 217
6.020590 -3.514350 5.110500 137 171 217
6.262940 -3.318520 5.110500 137 171 217
5.603010 -3.929260 5.110500 137 171 217
5.217280 -4.156540 5.110500 137 171 217
5.417490 -4.142440 5.110500 137 171 217
5.802650 -3.916490 5.110500 137 171 217
6.011440 -3.709030 5.110500 137 171 217
5.615790 -4.128320 5.110500 137 171 217
4.636290 -4.403660 5.110500 137 171 217
4.835350 -4.387260 5.110500 137 171 217
4.355800 -4.627320 5.110500 137 171 217
4.454950 -4.617790 5.110500 137 171 217
4.652110 -4.601390 5.110500 137 171 217
3.510150 -5.109740 5.110500 137 171 217
4.079510 -4.852130 5.110500 137 171 217
3.706740 -5.087800 5.110500 137 171 217
3.902180 -5.068360 5.110500 137 171 217
4.098580 -5.048150 5.110500 137 171 217
4.276100 -4.833830 5.110500 137 171 217
5.033660 -4.371440 5.110500 137 171 217
4.851170 -4.584990 5.110500 137 171 217
1.781100 -5.534750 5.110500 137 171 217
1.587000 -5.568310 5.110500 137 171 217
1.975210 -5.505390 5.110500 137 171 217
2.169320 -5.476030 5.110500 137 171 217
2.364000 -5.448570 5.110500 137 171 217
2.558680 -5.421110 5.110500 137 171 217
2.753360 -5.396700 5.110500 137 171 217
2.948040 -5.372290 5.110500 137 171 217
3.142720 -5.349030 5.110500 137 171 217
3.337400 -5.325770 5.110500 137 171 217
8.829250 9.622840 5.110500 137 171 217
8.829250 9.435410 5.110500 137 171 217
-8.999520 -1.049290 5.110500 137 171 217
-8.790730 -1.456380 5.110500 137 171 217
-8.999520 -1.253690 5.110500 137 171 217
-8.683380 -1.761850 5.110500 137 171 217
-8.787680 -1.659070 5.110500 137 171 217
-8.999520 -1.457520 5.110500 137 171 217
-1.375720 -6.155400 5.110500 137 171 217
-1.611400 -6.240250 5.110500 137 171 217
-0.356374 -6.251310 5.110500 137 171 217
-0.543808 -6.287920 5.110500 137 171 217
-0.190295 -6.221380 5.110500 137 171 217
-0.731242 -6.324530 5.110500 137 171 217
-3.748880 -5.874160 5.110500 137 171 217
-2.474400 -6.311280 5.110500 137 171 217
-2.198780 -6.310420 5.110500 137 171 217
-1.836880 -6.340360 5.110500 137 171 217
-2.062350 -6.440460 5.110500 137 171 217
-1.881400 -6.455430 5.110500 137 171 217
-2.215270 -6.433410 5.110500 137 171 217
1.808560 -5.723330 5.110500 137 171 217
2.001340 -5.696450 5.110500 137 171 217
1.614450 -5.756890 5.110500 137 171 217
2.195450 -5.667090 5.110500 137 171 217
1.422260 -5.786820 5.110500 137 171 217
1.229290 -5.824580 5.110500 137 171 217
2.388410 -5.640770 5.110500 137 171 217
2.583090 -5.613310 5.110500 137 171 217
2.776630 -5.589670 5.110500 137 171 217
2.971310 -5.565250 5.110500 137 171 217
3.164080 -5.542560 5.110500 137 171 217
3.358760 -5.519300 5.110500 137 171 217
3.532080 -5.304420 5.110500 137 171 217
5.231960 -4.355610 5.110500 137 171 217
3.552860 -5.498520 5.110500 137 171 217
3.726760 -5.283060 5.110500 137 171 217
4.472690 -4.815520 5.110500 137 171 217
3.922200 -5.263610 5.110500 137 171 217
4.117650 -5.244160 5.110500 137 171 217
4.293830 -5.029840 5.110500 137 171 217
4.669850 -4.799120 5.110500 137 171 217
4.490420 -5.011530 5.110500 137 171 217
5.048330 -4.569170 5.110500 137 171 217
-2.719800 -6.327100 5.110500 137 171 217
-2.368200 -6.426350 5.110500 137 171 217
-2.613600 -6.442180 5.110500 137 171 217
-1.700440 -6.470400 5.110500 137 171 217
-1.481930 -6.351990 5.110500 137 171 217
-2.231770 -6.556390 5.110500 137 171 217
-1.925920 -6.570500 5.110500 137 171 217
-2.507390 -6.557250 5.110500 137 171 217
-0.924016 -6.364770 5.110500 137 171 217
-1.246250 -6.267140 5.110500 137 171 217
-3.638960 -5.976070 5.110500 137 171 217
-3.529030 -6.077990 5.110500 137 171 217
-3.419110 -6.179900 5.110500 137 171 217
-3.744490 -6.081040 5.110500 137 171 217
-3.309180 -6.281820 5.110500 137 171 217
-2.952240 -6.343980 5.110500 137 171 217
-3.193820 -6.378870 5.110500 137 171 217
-8.892070 -1.762420 5.110500 137 171 217
0.877112 -6.068650 5.110500 137 171 217
-0.008390 -6.387260 5.110500 137 171 217
0.170464 -6.362290 5.110500 137 171 217
-0.174469 -6.417200 5.110500 137 171 217
-0.363620 -6.422150 5.110500 137 171 217
-0.551054 -6.458770 5.110500 137 171 217
0.344360 -6.347600 5.110500 137 171 217
1.067980 -6.035090 5.110500 137 171 217
0.534845 -6.315950 5.110500 137 171 217
0.716179 -6.286010 5.110500 137 171 217
0.906471 -6.254750 5.110500 137 171 217
-2.836880 -6.441040 5.110500 137 171 217
-2.730670 -6.556110 5.110500 137 171 217
-3.078460 -6.475930 5.110500 137 171 217
-3.634570 -6.182950 5.110500 137 171 217
-3.524640 -6.284870 5.110500 137 171 217
-3.418730 -6.385260 5.110500 137 171 217
-3.312800 -6.485650 5.110500 137 171 217
-2.963110 -6.572990 5.110500 137 171 217
-3.197450 -6.582700 5.110500 137 171 217
-1.116790 -6.405000 5.110500 137 171 217
-0.741539 -6.482030 5.110500 137 171 217
-0.934312 -6.522270 5.110500 137 171 217
-1.570970 -6.582130 5.110500 137 171 217
-0.935647 -6.657260 5.110500 137 171 217
-1.352460 -6.463730 5.110500 137 171 217
-1.235960 -6.569360 5.110500 137 171 217
-1.119460 -6.674990 5.110500 137 171 217
1.259800 -6.003430 5.110500 137 171 217
1.451620 -5.971780 5.110500 137 171 217
1.097340 -6.221190 5.110500 137 171 217
1.288400 -6.192020 5.110500 137 171 217
1.643820 -5.941850 5.110500 137 171 217
0.365144 -6.533130 5.110500 137 171 217
0.555629 -6.501470 5.110500 137 171 217
0.186290 -6.558110 5.110500 137 171 217
0.746114 -6.469820 5.110500 137 171 217
0.007436 -6.583090 5.110500 137 171 217
0.936407 -6.438560 5.110500 137 171 217
-0.181714 -6.588050 5.110500 137 171 217
8.265420 -1.839460 5.110500 137 171 217
8.453240 -1.651450 5.110500 137 171 217
8.641240 -1.464200 5.110500 137 171 217
8.077600 -2.027460 5.110500 137 171 217
7.889600 -2.215470 5.110500 137 171 217
7.701590 -2.403470 5.110500 137 171 217
8.829250 -1.276960 5.110500 137 171 217
7.513020 -2.591470 5.110500 137 171 217
7.322910 -2.778340 5.110500 137 171 217
7.131470 -2.964630 5.110500 137 171 217
6.729710 -3.135480 5.110500 137 171 217
6.932400 -3.147110 5.110500 137 171 217
6.500900 -3.319100 5.110500 137 171 217
6.719420 -3.318520 5.110500 137 171 217
6.247680 -3.514350 5.110500 137 171 217
6.474780 -3.514350 5.110500 137 171 217
6.231860 -3.705980 5.110500 137 171 217
6.002290 -3.903710 5.110500 137 171 217
8.077600 -2.215470 5.110500 137 171 217
7.889600 -2.403470 5.110500 137 171 217
8.265420 -2.027460 5.110500 137 171 217
7.701020 -2.591470 5.110500 137 171 217
8.453240 -1.839460 5.110500 137 171 217
8.641240 -1.651450 5.110500 137 171 217
7.511680 -2.778910 5.110500 137 171 217
7.321200 -2.965780 5.110500 137 171 217
7.125940 -3.150160 5.110500 137 171 217
6.922100 -3.330160 5.110500 137 171 217
6.693300 -3.513770 5.110500 137 171 217
7.122320 -3.336260 5.110500 137 171 217
7.319480 -3.153210 5.110500 137 171 217
7.510910 -2.966340 5.110500 137 171 217
7.700450 -2.779480 5.110500 137 171 217
7.889600 -2.591470 5.110500 137 171 217
8.829250 -1.464200 5.110500 137 171 217
8.453240 -2.027460 5.110500 137 171 217
8.265420 -2.215470 5.110500 137 171 217
8.077600 -2.403470 5.110500 137 171 217
8.641240 -1.839460 5.110500 137 171 217
8.829250 -1.651450 5.110500 137 171 217
5.815420 -4.115550 5.110500 137 171 217
5.430260 -4.341500 5.110500 137 171 217
5.628560 -4.327390 5.110500 137 171 217
5.246640 -4.553340 5.110500 137 171 217
6.014490 -4.103350 5.110500 137 171 217
6.222710 -3.900660 5.110500 137 171 217
6.458950 -3.705980 5.110500 137 171 217
5.827620 -4.315190 5.110500 137 171 217
5.443800 -4.539810 5.110500 137 171 217
5.642100 -4.525690 5.110500 137 171 217
6.212790 -4.092290 5.110500 137 171 217
6.026690 -4.302990 5.110500 137 171 217
6.443130 -3.897610 5.110500 137 171 217
5.839260 -4.512920 5.110500 137 171 217
4.867000 -4.782720 5.110500 137 171 217
5.064160 -4.766900 5.110500 137 171 217
4.685670 -4.994940 5.110500 137 171 217
4.882830 -4.978540 5.110500 137 171 217
3.747540 -5.477170 5.110500 137 171 217
4.312900 -5.225860 5.110500 137 171 217
3.941080 -5.457720 5.110500 137 171 217
4.136530 -5.438270 5.110500 137 171 217
4.329870 -5.420540 5.110500 137 171 217
4.508150 -5.207550 5.110500 137 171 217
5.261320 -4.751070 5.110500 137 171 217
5.078840 -4.963290 5.110500 137 171 217
1.836020 -5.911910 5.110500 137 171 217
2.028800 -5.885030 5.110500 137 171 217
2.221570 -5.858140 5.110500 137 171 217
2.414530 -5.831830 5.110500 137 171 217
2.607490 -5.805510 5.110500 137 171 217
2.801030 -5.781870 5.110500 137 171 217
2.994570 -5.758220 5.110500 137 171 217
3.187340 -5.735530 5.110500 137 171 217
3.380110 -5.712840 5.110500 137 171 217
3.574220 -5.692060 5.110500 137 171 217
-0.370865 -6.593000 5.110500 137 171 217
-0.561350 -6.616270 5.110500 137 171 217
-0.751835 -6.639530 5.110500 137 171 217
-3.740110 -6.287920 5.110500 137 171 217
-2.401180 -6.672330 5.110500 137 171 217
-2.624460 -6.671180 5.110500 137 171 217
-2.248260 -6.679380 5.110500 137 171 217
-2.095330 -6.686430 5.110500 137 171 217
-1.789490 -6.700540 5.110500 137 171 217
-1.942410 -6.693490 5.110500 137 171 217
-1.594810 -6.705310 5.110500 137 171 217
-2.141390 -6.836590 5.110500 137 171 217
-1.988460 -6.843640 5.110500 137 171 217
-1.835540 -6.850700 5.110500 137 171 217
-2.294310 -6.829540 5.110500 137 171 217
1.863470 -6.102400 5.110500 137 171 217
2.054540 -6.076080 5.110500 137 171 217
1.671270 -6.132330 5.110500 137 171 217
2.247310 -6.049190 5.110500 137 171 217
1.480220 -6.160360 5.110500 137 171 217
2.438940 -6.024220 5.110500 137 171 217
2.631900 -5.997910 5.110500 137 171 217
2.823530 -5.974070 5.110500 137 171 217
3.017070 -5.950420 5.110500 137 171 217
3.209270 -5.928490 5.110500 137 171 217
3.402040 -5.905800 5.110500 137 171 217
3.593860 -5.885030 5.110500 137 171 217
3.768330 -5.671280 5.110500 137 171 217
5.458480 -4.737540 5.110500 137 171 217
3.787970 -5.864240 5.110500 137 171 217
3.961870 -5.651830 5.110500 137 171 217
4.703400 -5.190960 5.110500 137 171 217
4.155400 -5.632380 5.110500 137 171 217
4.348750 -5.614650 5.110500 137 171 217
4.525120 -5.402230 5.110500 137 171 217
4.898660 -5.174370 5.110500 137 171 217
4.719230 -5.385840 5.110500 137 171 217
5.276000 -4.947470 5.110500 137 171 217
-2.847750 -6.670040 5.110500 137 171 217
-2.529220 -6.795410 5.110500 137 171 217
-2.752510 -6.794260 5.110500 137 171 217
-1.400130 -6.710080 5.110500 137 171 217
-1.599580 -6.920200 5.110500 137 171 217
-1.740580 -6.960530 5.110500 137 171 217
-1.881590 -7.000860 5.110500 137 171 217
-2.433980 -6.919630 5.110500 137 171 217
-2.657270 -6.918490 5.110500 137 171 217
-3.634190 -6.388310 5.110500 137 171 217
-3.528270 -6.488700 5.110500 137 171 217
-3.738970 -6.489270 5.110500 137 171 217
-3.422350 -6.589090 5.110500 137 171 217
-3.082090 -6.679760 5.110500 137 171 217
-3.316430 -6.689480 5.110500 137 171 217
1.126700 -6.407290 5.110500 137 171 217
-0.358662 -6.795690 5.110500 137 171 217
-0.549147 -6.818950 5.110500 137 171 217
-0.756221 -6.831730 5.110500 137 171 217
1.317760 -6.378120 5.110500 137 171 217
-2.971970 -6.782630 5.110500 137 171 217
-2.861860 -6.885500 5.110500 137 171 217
-3.206320 -6.792350 5.110500 137 171 217
-3.633040 -6.589660 5.110500 137 171 217
-3.939740 -6.489270 5.110500 137 171 217
-3.527130 -6.690060 5.110500 137 171 217
-3.319480 -6.891410 5.110500 137 171 217
-3.096200 -6.895220 5.110500 137 171 217
-3.209370 -6.994280 5.110500 137 171 217
-1.109550 -6.878060 5.110500 137 171 217
-0.940033 -6.849460 5.110500 137 171 217
-1.404900 -6.924970 5.110500 137 171 217
-1.249880 -6.895610 5.110500 137 171 217
-0.930118 -7.052530 5.110500 137 171 217
-0.760606 -7.023930 5.110500 137 171 217
-1.099630 -7.081130 5.110500 137 171 217
-1.254650 -7.110490 5.110500 137 171 217
1.508820 -6.348940 5.110500 137 171 217
1.699870 -6.320910 5.110500 137 171 217
1.890930 -6.292880 5.110500 137 171 217
-0.346459 -6.998380 5.110500 137 171 217
8.641240 -2.027460 5.110500 137 171 217
8.453240 -2.215470 5.110500 137 171 217
8.829250 -1.839460 5.110500 137 171 217
8.265420 -2.403470 5.110500 137 171 217
8.077600 -2.591470 5.110500 137 171 217
7.889030 -2.779480 5.110500 137 171 217
7.699690 -2.966910 5.110500 137 171 217
7.509200 -3.153780 5.110500 137 171 217
7.315860 -3.339310 5.110500 137 171 217
6.911810 -3.513200 5.110500 137 171 217
7.112020 -3.519300 5.110500 137 171 217
6.673650 -3.691300 5.110500 137 171 217
6.892170 -3.690720 5.110500 137 171 217
6.657830 -3.882920 5.110500 137 171 217
6.433220 -4.089240 5.110500 137 171 217
6.224990 -4.291930 5.110500 137 171 217
8.453240 -2.403470 5.110500 137 171 217
8.265420 -2.591470 5.110500 137 171 217
8.077600 -2.779480 5.110500 137 171 217
8.641240 -2.215470 5.110500 137 171 217
7.889030 -2.967490 5.110500 137 171 217
8.829250 -2.027460 5.110500 137 171 217
7.698920 -3.154350 5.110500 137 171 217
7.508050 -3.341210 5.110500 137 171 217
7.312230 -3.525410 5.110500 137 171 217
7.104010 -3.704260 5.110500 137 171 217
6.872530 -3.868240 5.110500 137 171 217
7.304220 -3.710360 5.110500 137 171 217
7.504430 -3.527310 5.110500 137 171 217
7.697770 -3.341790 5.110500 137 171 217
7.888260 -3.154930 5.110500 137 171 217
8.077600 -2.967490 5.110500 137 171 217
8.265420 -2.779480 5.110500 137 171 217
8.641240 -2.403470 5.110500 137 171 217
8.829250 -2.215470 5.110500 137 171 217
8.453240 -2.591470 5.110500 137 171 217
6.038320 -4.500720 5.110500 137 171 217
5.655640 -4.724000 5.110500 137 171 217
5.852800 -4.711230 5.110500 137 171 217
5.471250 -4.934120 5.110500 137 171 217
6.423300 -4.280870 5.110500 137 171 217
6.235490 -4.490420 5.110500 137 171 217
6.632850 -4.080850 5.110500 137 171 217
6.049960 -4.698450 5.110500 137 171 217
5.668410 -4.920590 5.110500 137 171 217
5.864430 -4.907810 5.110500 137 171 217
6.433790 -4.479370 5.110500 137 171 217
6.622940 -4.272480 5.110500 137 171 217
6.247120 -4.688160 5.110500 137 171 217
6.847560 -4.066170 5.110500 137 171 217
6.061590 -4.895040 5.110500 137 171 217
5.094670 -5.159120 5.110500 137 171 217
5.290680 -5.143870 5.110500 137 171 217
4.914480 -5.369240 5.110500 137 171 217
5.108590 -5.353990 5.110500 137 171 217
3.980170 -5.844600 5.110500 137 171 217
4.542090 -5.596910 5.110500 137 171 217
4.173700 -5.825150 5.110500 137 171 217
4.366480 -5.807610 5.110500 137 171 217
4.559830 -5.789870 5.110500 137 171 217
4.736200 -5.580510 5.110500 137 171 217
5.485940 -5.130520 5.110500 137 171 217
5.304600 -5.338740 5.110500 137 171 217
2.081990 -6.266570 5.110500 137 171 217
2.273050 -6.240250 5.110500 137 171 217
2.464680 -6.215270 5.110500 137 171 217
2.656310 -6.190300 5.110500 137 171 217
2.847940 -6.166470 5.110500 137 171 217
3.039570 -6.142630 5.110500 137 171 217
3.231770 -6.120700 5.110500 137 171 217
3.423970 -6.098770 5.110500 137 171 217
3.615790 -6.077990 5.110500 137 171 217
3.807610 -6.057210 5.110500 137 171 217
-0.553533 -7.011150 5.110500 137 171 217
-3.737820 -6.690630 5.110500 137 171 217
-2.187440 -6.986750 5.110500 137 171 217
-2.562020 -7.042710 5.110500 137 171 217
-2.327110 -7.076850 5.110500 137 171 217
-2.766620 -7.009720 5.110500 137 171 217
-2.034510 -6.993800 5.110500 137 171 217
-1.645630 -7.070360 5.110500 137 171 217
-2.080560 -7.143960 5.110500 137 171 217
-1.927640 -7.151010 5.110500 137 171 217
-2.220230 -7.234050 5.110500 137 171 217
-1.691680 -7.220520 5.110500 137 171 217
-1.832680 -7.260840 5.110500 137 171 217
-2.466780 -7.166940 5.110500 137 171 217
3.999810 -6.037560 5.110500 137 171 217
5.681190 -5.117170 5.110500 137 171 217
4.192010 -6.017920 5.110500 137 171 217
4.930310 -5.564120 5.110500 137 171 217
4.384780 -6.000380 5.110500 137 171 217
4.577560 -5.982840 5.110500 137 171 217
4.752220 -5.773290 5.110500 137 171 217
5.124420 -5.548860 5.110500 137 171 217
4.946320 -5.756890 5.110500 137 171 217
5.498710 -5.325200 5.110500 137 171 217
-2.986080 -6.998090 5.110500 137 171 217
-2.671370 -7.133950 5.110500 137 171 217
-2.875970 -7.100960 5.110500 137 171 217
-1.409670 -7.139860 5.110500 137 171 217
-1.550680 -7.180190 5.110500 137 171 217
-1.506150 -7.266470 5.110500 137 171 217
-1.788160 -7.347120 5.110500 137 171 217
-1.973690 -7.301170 5.110500 137 171 217
-2.682430 -7.334160 5.110500 137 171 217
-2.993140 -7.199160 5.110500 137 171 217
-3.938600 -6.690630 5.110500 137 171 217
-3.530180 -6.891980 5.110500 137 171 217
-3.737820 -6.892740 5.110500 137 171 217
-3.099250 -7.097150 5.110500 137 171 217
-3.322530 -7.093340 5.110500 137 171 217
-0.442274 -7.110020 5.110500 137 171 217
-0.333683 -7.207750 5.110500 137 171 217
-0.649347 -7.122790 5.110500 137 171 217
-0.538088 -7.221660 5.110500 137 171 217
-0.745161 -7.234440 5.110500 137 171 217
-2.887020 -7.301170 5.110500 137 171 217
-3.216420 -7.195350 5.110500 137 171 217
-3.938600 -6.892740 5.110500 137 171 217
-3.530180 -7.094100 5.110500 137 171 217
-3.325010 -7.295450 5.110500 137 171 217
-3.110310 -7.297360 5.110500 137 171 217
-3.218900 -7.397460 5.110500 137 171 217
-1.068550 -7.283820 5.110500 137 171 217
-0.914674 -7.263040 5.110500 137 171 217
-1.223570 -7.313180 5.110500 137 171 217
-1.388310 -7.329010 5.110500 137 171 217
-0.633903 -7.333300 5.110500 137 171 217
-0.883594 -7.465720 5.110500 137 171 217
-0.729717 -7.444940 5.110500 137 171 217
-0.429498 -7.319390 5.110500 137 171 217
-1.037470 -7.486510 5.110500 137 171 217
-1.202210 -7.502340 5.110500 137 171 217
-1.484800 -7.455620 5.110500 137 171 217
-1.366960 -7.518160 5.110500 137 171 217
-0.320908 -7.417110 5.110500 137 171 217
8.829250 -2.403470 5.110500 137 171 217
8.641240 -2.591470 5.110500 137 171 217
8.453240 -2.779480 5.110500 137 171 217
8.265420 -2.967490 5.110500 137 171 217
8.077600 -3.155500 5.110500 137 171 217
7.887500 -3.342930 5.110500 137 171 217
7.696630 -3.529220 5.110500 137 171 217
7.501960 -3.714560 5.110500 137 171 217
7.084370 -3.881780 5.110500 137 171 217
7.296210 -3.895320 5.110500 137 171 217
7.070830 -4.063680 5.110500 137 171 217
6.822580 -4.264090 5.110500 137 171 217
6.633430 -4.470980 5.110500 137 171 217
6.444280 -4.677860 5.110500 137 171 217
8.641240 -2.779480 5.110500 137 171 217
8.829250 -2.591470 5.110500 137 171 217
8.453240 -2.967490 5.110500 137 171 217
8.265420 -3.155500 5.110500 137 171 217
8.076840 -3.343500 5.110500 137 171 217
7.886350 -3.530360 5.110500 137 171 217
7.694150 -3.716460 5.110500 137 171 217
7.493950 -3.899510 5.110500 137 171 217
7.282670 -4.077230 5.110500 137 171 217
7.045860 -4.261610 5.110500 137 171 217
7.488420 -4.085800 5.110500 137 171 217
7.691680 -3.903710 5.110500 137 171 217
7.885210 -3.717800 5.110500 137 171 217
8.076080 -3.531510 5.110500 137 171 217
8.265420 -3.343500 5.110500 137 171 217
8.453240 -3.155500 5.110500 137 171 217
8.641240 -2.967490 5.110500 137 171 217
8.829250 -2.779480 5.110500 137 171 217
6.256840 -4.883980 5.110500 137 171 217
5.877210 -5.104400 5.110500 137 171 217
6.073220 -5.091620 5.110500 137 171 217
5.693960 -5.311850 5.110500 137 171 217
6.641440 -4.667940 5.110500 137 171 217
6.830590 -4.461060 5.110500 137 171 217
6.454000 -4.873680 5.110500 137 171 217
6.268470 -5.080560 5.110500 137 171 217
5.888650 -5.299650 5.110500 137 171 217
6.084660 -5.286870 5.110500 137 171 217
6.649820 -4.864530 5.110500 137 171 217
6.838590 -4.658020 5.110500 137 171 217
7.028890 -4.454390 5.110500 137 171 217
6.463720 -5.069500 5.110500 137 171 217
7.269140 -4.259130 5.110500 137 171 217
6.278770 -5.276010 5.110500 137 171 217
5.318520 -5.533610 5.110500 137 171 217
5.512630 -5.520070 5.110500 137 171 217
5.139100 -5.742210 5.110500 137 171 217
5.333210 -5.726950 5.110500 137 171 217
4.769950 -5.966250 5.110500 137 171 217
4.962340 -5.949660 5.110500 137 171 217
5.706740 -5.506530 5.110500 137 171 217
5.525410 -5.713610 5.110500 137 171 217
-0.525312 -7.431030 5.110500 137 171 217
-3.737820 -7.094860 5.110500 137 171 217
-2.522450 -7.367720 5.110500 137 171 217
-2.370490 -7.423210 5.110500 137 171 217
-1.602640 -7.393080 5.110500 137 171 217
-1.743640 -7.433410 5.110500 137 171 217
-2.123940 -7.490320 5.110500 137 171 217
-1.884640 -7.473740 5.110500 137 171 217
-2.426160 -7.623990 5.110500 137 171 217
-2.274190 -7.679480 5.110500 137 171 217
-1.699120 -7.519690 5.110500 137 171 217
-1.581280 -7.582230 5.110500 137 171 217
-1.795600 -7.646300 5.110500 137 171 217
-2.578130 -7.568500 5.110500 137 171 217
-2.738110 -7.534940 5.110500 137 171 217
5.901420 -5.494330 5.110500 137 171 217
5.155120 -5.934980 5.110500 137 171 217
5.347890 -5.920300 5.110500 137 171 217
5.719520 -5.700070 5.110500 137 171 217
-3.004190 -7.399370 5.110500 137 171 217
-2.898080 -7.501380 5.110500 137 171 217
-2.034900 -7.662890 5.110500 137 171 217
-2.776430 -7.725240 5.110500 137 171 217
-2.616450 -7.758800 5.110500 137 171 217
-2.929160 -7.708840 5.110500 137 171 217
-3.112790 -7.499470 5.110500 137 171 217
-3.938600 -7.094860 5.110500 137 171 217
-3.532660 -7.296220 5.110500 137 171 217
-3.737250 -7.296790 5.110500 137 171 217
-3.938600 -7.296790 5.110500 137 171 217
-3.327490 -7.497570 5.110500 137 171 217
-0.310039 -7.633140 5.110500 137 171 217
-0.512538 -7.627040 5.110500 137 171 217
-0.716942 -7.640960 5.110500 137 171 217
-0.865858 -7.638480 5.110500 137 171 217
-3.532080 -7.498140 5.110500 137 171 217
-3.736680 -7.498710 5.110500 137 171 217
-3.328060 -7.699490 5.110500 137 171 217
-3.143860 -7.706930 5.110500 137 171 217
-3.532650 -7.700070 5.110500 137 171 217
-1.019740 -7.659260 5.110500 137 171 217
-1.181620 -7.667850 5.110500 137 171 217
-1.346360 -7.683670 5.110500 137 171 217
-0.853083 -7.834500 5.110500 137 171 217
-1.002000 -7.832020 5.110500 137 171 217
-0.704167 -7.836970 5.110500 137 171 217
-1.163880 -7.840600 5.110500 137 171 217
-1.325770 -7.849180 5.110500 137 171 217
-1.560690 -7.747740 5.110500 137 171 217
-1.514920 -7.883880 5.110500 137 171 217
-0.299170 -7.849180 5.110500 137 171 217
8.829250 -2.967490 5.110500 137 171 217
8.641240 -3.155500 5.110500 137 171 217
8.453240 -3.343500 5.110500 137 171 217
8.264660 -3.531510 5.110500 137 171 217
8.074940 -3.718940 5.110500 137 171 217
7.882740 -3.905040 5.110500 137 171 217
7.686150 -4.090000 5.110500 137 171 217
7.474880 -4.267710 5.110500 137 171 217
7.252170 -4.451900 5.110500 137 171 217
7.036890 -4.651350 5.110500 137 171 217
6.846980 -4.854610 5.110500 137 171 217
6.659540 -5.060350 5.110500 137 171 217
8.829250 -3.155500 5.110500 137 171 217
8.641240 -3.343500 5.110500 137 171 217
8.453240 -3.531510 5.110500 137 171 217
8.264090 -3.719510 5.110500 137 171 217
8.073790 -3.906380 5.110500 137 171 217
7.880830 -4.092290 5.110500 137 171 217
7.680620 -4.276290 5.110500 137 171 217
7.465720 -4.452480 5.110500 137 171 217
7.235200 -4.644680 5.110500 137 171 217
7.671460 -4.461050 5.110500 137 171 217
7.875300 -4.278580 5.110500 137 171 217
8.071890 -4.093620 5.110500 137 171 217
8.262940 -3.906950 5.110500 137 171 217
8.452660 -3.719510 5.110500 137 171 217
8.641240 -3.531510 5.110500 137 171 217
8.829250 -3.343500 5.110500 137 171 217
6.474020 -5.264950 5.110500 137 171 217
6.096100 -5.482120 5.110500 137 171 217
6.290210 -5.471250 5.110500 137 171 217
5.912480 -5.687870 5.110500 137 171 217
6.855370 -5.051200 5.110500 137 171 217
7.045280 -4.847940 5.110500 137 171 217
6.668130 -5.255790 5.110500 137 171 217
6.484320 -5.460390 5.110500 137 171 217
6.107160 -5.675660 5.110500 137 171 217
6.299930 -5.664600 5.110500 137 171 217
6.863950 -5.246640 5.110500 137 171 217
7.051390 -5.043380 5.110500 137 171 217
7.241300 -4.840120 5.110500 137 171 217
7.448750 -4.645250 5.110500 137 171 217
6.678430 -5.451230 5.110500 137 171 217
6.494040 -5.653730 5.110500 137 171 217
5.540090 -5.906960 5.110500 137 171 217
5.732290 -5.893610 5.110500 137 171 217
5.925250 -5.881400 5.110500 137 171 217
-0.501668 -7.843070 5.110500 137 171 217
-3.938030 -7.498710 5.110500 137 171 217
-2.464480 -7.814280 5.110500 137 171 217
-2.301080 -7.827250 5.110500 137 171 217
-2.036230 -7.800370 5.110500 137 171 217
-2.182100 -7.887690 5.110500 137 171 217
-1.870150 -7.859480 5.110500 137 171 217
-2.491370 -7.962060 5.110500 137 171 217
-2.327960 -7.975020 5.110500 137 171 217
-2.654780 -7.949090 5.110500 137 171 217
-2.176560 -7.990850 5.110500 137 171 217
-2.025170 -8.006680 5.110500 137 171 217
-2.177710 -8.115360 5.110500 137 171 217
-2.343220 -8.125080 5.110500 137 171 217
-1.704070 -7.918580 5.110500 137 171 217
-1.864620 -7.962630 5.110500 137 171 217
-2.807510 -7.932690 5.110500 137 171 217
-2.960240 -7.916290 5.110500 137 171 217
6.118220 -5.869200 5.110500 137 171 217
-2.828290 -8.104300 5.110500 137 171 217
-2.675560 -8.120700 5.110500 137 171 217
-3.144430 -7.908860 5.110500 137 171 217
-2.982170 -8.091520 5.110500 137 171 217
-2.506630 -8.112120 5.110500 137 171 217
-3.328630 -7.901420 5.110500 137 171 217
-3.166370 -8.084090 5.110500 137 171 217
-3.736680 -7.700070 5.110500 137 171 217
-3.938030 -7.700070 5.110500 137 171 217
-3.532650 -7.901420 5.110500 137 171 217
-0.298408 -8.055490 5.110500 137 171 217
-0.483935 -8.035850 5.110500 137 171 217
-0.686433 -8.029740 5.110500 137 171 217
-0.838403 -8.014490 5.110500 137 171 217
-0.987319 -8.012010 5.110500 137 171 217
-3.736680 -7.901420 5.110500 137 171 217
-3.938030 -7.901420 5.110500 137 171 217
-3.337210 -8.077230 5.110500 137 171 217
-3.541230 -8.077230 5.110500 137 171 217
-3.736680 -8.083330 5.110500 137 171 217
-1.150340 -7.998670 5.110500 137 171 217
-1.312230 -8.007250 5.110500 137 171 217
-1.501380 -8.041950 5.110500 137 171 217
-0.820670 -8.207270 5.110500 137 171 217
-0.972639 -8.192010 5.110500 137 171 217
-0.668700 -8.222520 5.110500 137 171 217
-1.135660 -8.178670 5.110500 137 171 217
-1.298690 -8.165320 5.110500 137 171 217
-1.483650 -8.179430 5.110500 137 171 217
-1.668610 -8.193540 5.110500 137 171 217
-1.846890 -8.100110 5.110500 137 171 217
-0.297646 -8.261800 5.110500 137 171 217
-0.483173 -8.242160 5.110500 137 171 217
8.829250 -3.531510 5.110500 137 171 217
8.641240 -3.719510 5.110500 137 171 217
8.452090 -3.907520 5.110500 137 171 217
8.262370 -4.094960 5.110500 137 171 217
8.069980 -4.280870 5.110500 137 171 217
7.872250 -4.466020 5.110500 137 171 217
7.662310 -4.645820 5.110500 137 171 217
7.437890 -4.835170 5.110500 137 171 217
7.247400 -5.035560 5.110500 137 171 217
7.058630 -5.238630 5.110500 137 171 217
6.872530 -5.442080 5.110500 137 171 217
8.829250 -3.719510 5.110500 137 171 217
8.640670 -3.907520 5.110500 137 171 217
8.451520 -4.095530 5.110500 137 171 217
8.260460 -4.282210 5.110500 137 171 217
8.066930 -4.468310 5.110500 137 171 217
7.863090 -4.650780 5.110500 137 171 217
7.651440 -4.835730 5.110500 137 171 217
7.443990 -5.030610 5.110500 137 171 217
7.857760 -4.837640 5.110500 137 171 217
8.063880 -4.655740 5.110500 137 171 217
8.259890 -4.469450 5.110500 137 171 217
8.450950 -4.283540 5.110500 137 171 217
8.640670 -4.095530 5.110500 137 171 217
8.829250 -3.907520 5.110500 137 171 217
9.017260 -3.719510 5.110500 137 171 217
6.687010 -5.644580 5.110500 137 171 217
6.310990 -5.858140 5.110500 137 171 217
6.503760 -5.847080 5.110500 137 171 217
7.067210 -5.434070 5.110500 137 171 217
7.254650 -5.230820 5.110500 137 171 217
6.881110 -5.635420 5.110500 137 171 217
6.696720 -5.837920 5.110500 137 171 217
7.074650 -5.627610 5.110500 137 171 217
7.261890 -5.426070 5.110500 137 171 217
7.451240 -5.225860 5.110500 137 171 217
7.640580 -5.025650 5.110500 137 171 217
6.889690 -5.828770 5.110500 137 171 217
6.705300 -6.030320 5.110500 137 171 217
-2.192970 -8.265420 5.110500 137 171 217
-2.027460 -8.255700 5.110500 137 171 217
-2.358470 -8.275150 5.110500 137 171 217
-1.848040 -8.224620 5.110500 137 171 217
-2.527410 -8.283730 5.110500 137 171 217
-2.696350 -8.292310 5.110500 137 171 217
-2.850220 -8.279540 5.110500 137 171 217
-2.198490 -8.414340 5.110500 137 171 217
-2.032990 -8.404610 5.110500 137 171 217
-2.369340 -8.430740 5.110500 137 171 217
-2.538280 -8.439320 5.110500 137 171 217
-1.671090 -8.367430 5.110500 137 171 217
-1.850510 -8.398510 5.110500 137 171 217
-3.004100 -8.266760 5.110500 137 171 217
-3.174950 -8.259890 5.110500 137 171 217
-2.874630 -8.433220 5.110500 137 171 217
-2.720750 -8.445990 5.110500 137 171 217
-3.018210 -8.426540 5.110500 137 171 217
-3.345790 -8.253030 5.110500 137 171 217
-3.189060 -8.419680 5.110500 137 171 217
-3.541230 -8.259130 5.110500 137 171 217
-3.348270 -8.412440 5.110500 137 171 217
-3.938030 -8.083330 5.110500 137 171 217
-3.736680 -8.265230 5.110500 137 171 217
-0.331204 -8.404610 5.110500 137 171 217
-0.475928 -8.392420 5.110500 137 171 217
-0.661454 -8.372780 5.110500 137 171 217
-0.806178 -8.372780 5.110500 137 171 217
-0.958147 -8.357520 5.110500 137 171 217
-1.131470 -8.357520 5.110500 137 171 217
-3.519680 -8.398900 5.110500 137 171 217
-3.522160 -8.558300 5.110500 137 171 217
-1.294500 -8.344180 5.110500 137 171 217
-1.479450 -8.358290 5.110500 137 171 217
-0.943656 -8.523030 5.110500 137 171 217
-0.654209 -8.523030 5.110500 137 171 217
-1.116980 -8.523030 5.110500 137 171 217
-0.509486 -8.535230 5.110500 137 171 217
-1.290300 -8.523030 5.110500 137 171 217
-1.481930 -8.532180 5.110500 137 171 217
-1.673560 -8.541330 5.110500 137 171 217
-1.856040 -8.547430 5.110500 137 171 217
-0.364763 -8.547430 5.110500 137 171 217
-0.542473 -8.651740 5.110500 137 171 217
9.017260 -3.907520 5.110500 137 171 217
8.829250 -4.095530 5.110500 137 171 217
8.640100 -4.283540 5.110500 137 171 217
8.450370 -4.470780 5.110500 137 171 217
8.256840 -4.656880 5.110500 137 171 217
8.058540 -4.842600 5.110500 137 171 217
7.846890 -5.027560 5.110500 137 171 217
7.645340 -5.219760 5.110500 137 171 217
7.456000 -5.419960 5.110500 137 171 217
7.269330 -5.619610 5.110500 137 171 217
7.083230 -5.820960 5.110500 137 171 217
9.017260 -4.095530 5.110500 137 171 217
8.829250 -4.283540 5.110500 137 171 217
8.639530 -4.471540 5.110500 137 171 217
8.449800 -4.658020 5.110500 137 171 217
8.254940 -4.844890 5.110500 137 171 217
8.053200 -5.029460 5.110500 137 171 217
7.840020 -5.215370 5.110500 137 171 217
7.650110 -5.413860 5.110500 137 171 217
8.046330 -5.217280 5.110500 137 171 217
8.249600 -5.031750 5.110500 137 171 217
8.447900 -4.846030 5.110500 137 171 217
8.638950 -4.658780 5.110500 137 171 217
8.828670 -4.471540 5.110500 137 171 217
9.017260 -4.283540 5.110500 137 171 217
6.898270 -6.021160 5.110500 137 171 217
7.276770 -5.813140 5.110500 137 171 217
7.462100 -5.613500 5.110500 137 171 217
7.283440 -6.005340 5.110500 137 171 217
7.469540 -5.807030 5.110500 137 171 217
7.656210 -5.607400 5.110500 137 171 217
7.844790 -5.409470 5.110500 137 171 217
-2.209370 -8.569930 5.110500 137 171 217
-2.038520 -8.553530 5.110500 137 171 217
-2.380210 -8.586330 5.110500 137 171 217
-2.562690 -8.593000 5.110500 137 171 217
-2.745160 -8.599680 5.110500 137 171 217
-3.032320 -8.586330 5.110500 137 171 217
-2.202690 -8.751830 5.110500 137 171 217
-2.031850 -8.735440 5.110500 137 171 217
-2.393750 -8.759080 5.110500 137 171 217
-1.849360 -8.729340 5.110500 137 171 217
-2.576220 -8.765750 5.110500 137 171 217
-2.762320 -8.765750 5.110500 137 171 217
-1.668030 -8.722660 5.110500 137 171 217
-1.477540 -8.717140 5.110500 137 171 217
-3.191530 -8.579080 5.110500 137 171 217
-3.350750 -8.571840 5.110500 137 171 217
-2.905900 -8.759080 5.110500 137 171 217
-3.072560 -8.748790 5.110500 137 171 217
-3.231770 -8.741540 5.110500 137 171 217
-3.492990 -8.668890 5.110500 137 171 217
-3.693580 -8.544760 5.110500 137 171 217
-3.398420 -8.840310 5.110500 137 171 217
-0.430737 -8.780440 5.110500 137 171 217
-0.653637 -8.682240 5.110500 137 171 217
-0.798361 -8.682240 5.110500 137 171 217
-0.936219 -8.704930 5.110500 137 171 217
-1.112590 -8.707990 5.110500 137 171 217
-1.285920 -8.707990 5.110500 137 171 217
-3.635240 -8.765950 5.110500 137 171 217
-3.255610 -8.875780 5.110500 137 171 217
-0.928783 -8.886830 5.110500 137 171 217
-1.105160 -8.889880 5.110500 137 171 217
-0.653066 -8.841450 5.110500 137 171 217
-1.281530 -8.892940 5.110500 137 171 217
-1.472020 -8.898470 5.110500 137 171 217
-1.662500 -8.903990 5.110500 137 171 217
-1.843840 -8.910660 5.110500 137 171 217
-2.025170 -8.917340 5.110500 137 171 217
9.017260 -4.471540 5.110500 137 171 217
8.828100 -4.659550 5.110500 137 171 217
8.638950 -4.846790 5.110500 137 171 217
8.445990 -5.034040 5.110500 137 171 217
8.246550 -5.219190 5.110500 137 171 217
8.039470 -5.405090 5.110500 137 171 217
7.850890 -5.603010 5.110500 137 171 217
7.662310 -5.800930 5.110500 137 171 217
7.475070 -5.999240 5.110500 137 171 217
9.016680 -4.659550 5.110500 137 171 217
8.828100 -4.847560 5.110500 137 171 217
8.637050 -5.034800 5.110500 137 171 217
8.442940 -5.221480 5.110500 137 171 217
8.239680 -5.407000 5.110500 137 171 217
8.043850 -5.598060 5.110500 137 171 217
7.855270 -5.795970 5.110500 137 171 217
8.236630 -5.595000 5.110500 137 171 217
8.439890 -5.408910 5.110500 137 171 217
8.636470 -5.222050 5.110500 137 171 217
8.828100 -5.035560 5.110500 137 171 217
9.016680 -4.847560 5.110500 137 171 217
7.667840 -5.993130 5.110500 137 171 217
8.048240 -5.791020 5.110500 137 171 217
-2.216220 -8.924580 5.110500 137 171 217
-2.407280 -8.931830 5.110500 137 171 217
-2.593380 -8.931830 5.110500 137 171 217
-2.779480 -8.931830 5.110500 137 171 217
-2.946130 -8.921540 5.110500 137 171 217
-3.112790 -8.911240 5.110500 137 171 217
9.016680 -5.035560 5.110500 137 171 217
8.827530 -5.222810 5.110500 137 171 217
8.633430 -5.409480 5.110500 137 171 217
8.436840 -5.596910 5.110500 137 171 217
8.241020 -5.787970 5.110500 137 171 217
8.052430 -5.983220 5.110500 137 171 217
9.016680 -5.222810 5.110500 137 171 217
8.826960 -5.410050 5.110500 137 171 217
8.632280 -5.597490 5.110500 137 171 217
8.433790 -5.784920 5.110500 137 171 217
8.629230 -5.785490 5.110500 137 171 217
8.825810 -5.598060 5.110500 137 171 217
9.016110 -5.410050 5.110500 137 171 217
8.824670 -5.786060 5.110500 137 171 217
9.014970 -5.786060 5.110500 137 171 217
-2.777200 2.871010 2.029550 183 132 220
-2.634960 2.995520 2.051480 183 132 220
-2.583090 2.871010 2.029550 183 132 220
-2.705700 2.679380 1.981880 183 132 220
-2.853470 2.646970 1.971020 183 132 220
-2.511590 2.679380 1.981880 183 132 220
-3.046810 2.646970 1.971020 183 132 220
-2.492710 3.120030 2.073410 183 132 220
-2.388980 2.871010 2.029550 183 132 220
-2.634190 2.487750 1.934220 183 132 220
-2.781970 2.455330 1.923350 183 132 220
-2.359040 2.706830 1.990460 183 132 220
-2.236250 3.084750 2.067300 183 132 220
-2.288120 3.209260 2.089240 183 132 220
-2.481650 2.515210 1.942800 183 132 220
-2.195450 2.871010 2.029550 183 132 220
-2.329110 2.542660 1.951380 183 132 220
-2.165510 2.706830 1.990460 183 132 220
-2.929740 2.422920 1.912480 183 132 220
-3.073120 2.358280 1.888640 183 132 220
-2.311950 2.393170 1.897610 183 132 220
-2.153310 2.537130 1.950240 183 132 220
-2.245970 3.433310 2.128890 183 132 220
-2.083520 3.298500 2.105060 183 132 220
-2.001910 2.871010 2.029550 183 132 220
-2.042710 3.084750 2.067300 183 132 220
-1.989700 2.701310 1.989320 183 132 220
-1.977500 2.531600 1.949090 183 132 220
-1.799790 3.055390 2.062540 183 132 220
-1.840600 3.269130 2.100300 183 132 220
-1.807800 2.871010 2.029550 183 132 220
-2.128130 3.558390 2.151020 183 132 220
-1.954810 3.477170 2.136910 183 132 220
-1.795590 2.701310 1.989320 183 132 220
-1.795590 2.526260 1.947190 183 132 220
-1.711890 3.447800 2.132140 183 132 220
-1.826100 3.655830 2.168750 183 132 220
-1.597670 3.239770 2.095530 183 132 220
-1.613690 2.871010 2.029550 183 132 220
-1.613690 2.695970 1.987410 183 132 220
-1.605680 3.055390 2.062540 183 132 220
-1.613690 2.520920 1.945280 183 132 220
-1.447610 3.060350 2.063110 183 132 220
-1.439600 3.244730 2.096100 183 132 220
-1.559340 3.384490 2.121080 183 132 220
-1.420160 2.871010 2.029550 183 132 220
-1.464770 3.354560 2.115550 183 132 220
-1.673560 3.592530 2.157690 183 132 220
-1.521020 3.529220 2.146630 183 132 220
-1.420160 2.695970 1.987410 183 132 220
-1.590620 3.709220 2.178470 183 132 220
-1.420160 2.515390 1.943560 183 132 220
-1.331870 3.469350 2.135570 183 132 220
-1.527120 3.816000 2.196780 183 132 220
-1.394030 3.742780 2.183240 183 132 220
-1.660220 3.889220 2.210320 183 132 220
-1.281530 3.249690 2.096670 183 132 220
-1.254080 3.060350 2.063110 183 132 220
-1.227190 3.430260 2.128320 183 132 220
-1.170750 3.155020 2.079890 183 132 220
-1.226620 2.871010 2.029550 183 132 220
-1.226620 2.690440 1.985700 183 132 220
-1.143290 2.965680 2.046330 183 132 220
-1.226620 2.509860 1.941840 183 132 220
-1.059970 3.060350 2.063110 183 132 220
-1.111260 3.316810 2.108310 183 132 220
-1.172850 3.610830 2.159980 183 132 220
-1.032510 2.871010 2.029550 183 132 220
-1.056920 3.497380 2.139960 183 132 220
-1.422060 3.939180 2.218130 183 132 220
-1.555150 4.012400 2.231670 183 132 220
-1.298890 3.856230 2.203450 183 132 220
-1.188300 3.790260 2.191820 183 132 220
-1.032510 2.690440 1.985700 183 132 220
-1.687680 4.119940 2.250550 183 132 220
-1.032510 2.506820 1.941080 183 132 220
-1.073510 3.721230 2.179620 183 132 220
-0.940986 3.383930 2.119940 183 132 220
-1.326920 4.052630 2.238340 183 132 220
-1.450090 4.135570 2.253030 183 132 220
-1.203740 3.969680 2.223660 183 132 220
-1.582610 4.243120 2.271900 183 132 220
-0.974163 3.831630 2.199260 183 132 220
-1.000480 3.222140 2.091530 183 132 220
-0.949184 2.965680 2.046330 183 132 220
-0.889694 3.127470 2.074740 183 132 220
-0.969779 3.659070 2.168560 183 132 220
-0.853847 3.545620 2.148540 183 132 220
-0.838402 2.871010 2.029550 183 132 220
-0.838402 2.687390 1.984930 183 132 220
-0.838402 2.503770 1.940320 183 132 220
-0.654781 3.090850 2.068640 183 132 220
-0.706073 3.347320 2.113840 183 132 220
-0.766708 3.707310 2.177140 183 132 220
-0.645057 2.871010 2.029550 183 132 220
-0.645057 2.687390 1.984930 183 132 220
-0.618935 3.509010 2.142440 183 132 220
-1.209080 4.187050 2.262180 183 132 220
-1.332250 4.270000 2.276860 183 132 220
-1.095050 4.086380 2.244450 183 132 220
-1.467250 4.380390 2.296310 183 132 220
-0.980265 4.017350 2.232240 183 132 220
-0.645057 2.501860 1.939740 183 132 220
-0.647536 2.332150 1.873200 183 132 220
-0.813995 4.007440 2.230910 183 132 220
-0.698065 3.867100 2.205360 183 132 220
-1.100390 4.303750 2.282960 183 132 220
-0.986367 4.203070 2.265230 183 132 220
-1.214410 4.404420 2.300700 183 132 220
-1.349410 4.514820 2.320150 183 132 220
-0.645629 4.005720 2.229770 183 132 220
-0.594337 3.763370 2.187060 183 132 220
-0.789780 4.173700 2.259700 183 132 220
-0.461437 3.090850 2.068640 183 132 220
-0.480885 3.485180 2.138240 183 132 220
-0.490609 3.659650 2.168750 183 132 220
-0.471161 3.310700 2.107730 183 132 220
-0.451712 2.871010 2.029550 183 132 220
-0.451712 2.685480 1.984360 183 132 220
-0.451712 2.499950 1.939170 183 132 220
-0.274574 3.063970 2.063690 183 132 220
-0.284298 3.283820 2.102770 183 132 220
-0.257603 2.871010 2.029550 183 132 220
-0.297836 3.468010 2.135190 183 132 220
-0.515016 3.892650 2.210320 183 132 220
-0.320907 3.775580 2.189530 183 132 220
-0.307560 3.642490 2.165700 183 132 220
-0.257603 2.685480 1.984360 183 132 220
-0.257603 2.498800 1.938600 183 132 220
-1.005810 4.404420 2.300700 183 132 220
-1.110690 4.530080 2.322620 183 132 220
-1.245680 4.640480 2.342070 183 132 220
-0.797217 4.404420 2.300700 183 132 220
-0.695205 4.274380 2.277440 183 132 220
-0.593193 4.144340 2.254170 183 132 220
-0.372199 4.017920 2.232240 183 132 220
-0.333111 3.892070 2.210320 183 132 220
-0.902088 4.530080 2.322620 183 132 220
-1.006960 4.655740 2.344550 183 132 220
-1.128990 4.777770 2.366480 183 132 220
-0.389360 4.229760 2.269430 183 132 220
-0.552389 4.424440 2.303560 183 132 220
-0.151206 3.891500 2.210320 183 132 220
-0.654400 4.554480 2.326820 183 132 220
-0.080465 3.063970 2.063690 183 132 220
-0.097436 3.256940 2.097820 183 132 220
-0.063495 2.871010 2.029550 183 132 220
-0.110973 3.441130 2.130230 183 132 220
-0.124511 3.625320 2.162650 183 132 220
-0.063495 2.684340 1.983790 183 132 220
-0.063495 2.497660 1.938030 183 132 220
0.117838 3.063970 2.063690 183 132 220
0.100867 3.256940 2.097820 183 132 220
0.130041 2.871010 2.029550 183 132 220
0.086757 3.441130 2.130230 183 132 220
0.130041 2.684340 1.983790 183 132 220
0.073220 3.625320 2.162650 183 132 220
-0.168367 4.103340 2.247500 183 132 220
0.051292 3.770610 2.188200 183 132 220
0.037944 3.903700 2.212040 183 132 220
0.033749 4.052050 2.238340 183 132 220
0.130041 2.497090 1.938030 183 132 220
-0.759272 4.680140 2.348750 183 132 220
-0.875203 4.801610 2.370100 183 132 220
-0.997238 4.923640 2.392030 183 132 220
-0.511584 4.704540 2.352940 183 132 220
-0.348556 4.509870 2.318810 183 132 220
-0.185528 4.315190 2.284680 183 132 220
0.016588 4.263900 2.275530 183 132 220
-0.627515 4.826010 2.374290 183 132 220
-0.743446 4.947470 2.395650 183 132 220
-0.881303 5.061110 2.415870 183 132 220
-0.064067 4.517300 2.320150 183 132 220
-0.227095 4.711980 2.354270 183 132 220
-0.377920 4.846790 2.377920 183 132 220
0.227095 3.915910 2.213750 183 132 220
0.222900 4.064260 2.240060 183 132 220
0.249023 3.770610 2.188200 183 132 220
-0.493851 4.968250 2.399280 183 132 220
0.311373 3.063970 2.063690 183 132 220
0.299170 3.256940 2.097820 183 132 220
0.323576 2.871010 2.029550 183 132 220
0.285060 3.441130 2.130230 183 132 220
0.323576 2.683760 1.983790 183 132 220
0.270950 3.625320 2.162650 183 132 220
0.323576 2.496520 1.938030 183 132 220
0.502430 3.060350 2.063110 183 132 220
0.490227 3.253320 2.097250 183 132 220
0.517685 2.871010 2.029550 183 132 220
0.442558 3.460200 2.133850 183 132 220
0.517685 2.683760 1.983790 183 132 220
0.428449 3.644390 2.166270 183 132 220
0.376584 3.798070 2.193150 183 132 220
0.517685 2.495750 1.937460 183 132 220
0.218705 4.212600 2.266370 183 132 220
0.138049 4.466010 2.310990 183 132 220
0.317475 4.042330 2.236440 183 132 220
0.482219 3.970820 2.223660 183 132 220
0.407856 4.168750 2.259130 183 132 220
0.279149 4.344550 2.289630 183 132 220
0.373724 4.322620 2.286020 183 132 220
-0.626752 5.082460 2.419490 183 132 220
-0.764609 5.196110 2.439700 183 132 220
-0.244256 4.989030 2.402900 183 132 220
-0.377157 5.103240 2.423110 183 132 220
-0.093431 4.854220 2.379250 183 132 220
0.057393 4.719420 2.355610 183 132 220
0.198493 4.597960 2.334250 183 132 220
0.339593 4.476500 2.312900 183 132 220
-0.510058 5.217460 2.443320 183 132 220
-0.646773 5.333960 2.464110 183 132 220
0.281438 4.748600 2.360950 183 132 220
0.151397 4.872540 2.383070 183 132 220
0.000572 5.007340 2.406720 183 132 220
-0.128897 5.116600 2.425590 183 132 220
-0.261798 5.230810 2.445800 183 132 220
0.534083 3.817140 2.196780 183 132 220
0.615311 4.039280 2.235860 183 132 220
0.578130 4.138240 2.253600 183 132 220
0.533702 4.319000 2.285820 183 132 220
0.585947 3.663460 2.169890 183 132 220
0.667175 3.885600 2.208980 183 132 220
-0.392411 5.348080 2.466590 183 132 220
0.696539 3.060350 2.063110 183 132 220
0.681285 3.249690 2.096670 183 132 220
0.711793 2.871010 2.029550 183 132 220
0.633616 3.456570 2.133280 183 132 220
0.711793 2.683000 1.983220 183 132 220
0.711793 2.494990 1.936890 183 132 220
0.890072 3.060350 2.063110 183 132 220
0.774334 3.375340 2.118980 183 132 220
0.905326 2.871010 2.029550 183 132 220
0.726665 3.582230 2.155590 183 132 220
0.905903 3.263040 2.099150 183 132 220
0.905326 2.683000 1.983220 183 132 220
0.867382 3.501000 2.141290 183 132 220
0.819713 3.707890 2.177900 183 132 220
0.905326 2.494990 1.936890 183 132 220
0.641052 4.213370 2.266940 183 132 220
0.422537 4.627130 2.339590 183 132 220
0.526265 4.536760 2.323770 183 132 220
0.748403 4.107730 2.248070 183 132 220
0.900941 3.930020 2.216990 183 132 220
0.623319 4.458000 2.310230 183 132 220
0.759462 4.334830 2.288300 183 132 220
-0.525312 5.468200 2.487940 183 132 220
-0.013538 5.244160 2.448280 183 132 220
0.115931 5.134910 2.429410 183 132 220
-0.144151 5.361430 2.469070 183 132 220
0.245400 5.025650 2.410530 183 132 220
-0.274764 5.478690 2.489850 183 132 220
0.375441 4.901710 2.388410 183 132 220
0.505482 4.777770 2.366290 183 132 220
0.712937 4.597010 2.334640 183 132 220
-0.407666 5.598820 2.511210 183 132 220
0.461436 5.059210 2.415870 183 132 220
0.591477 4.935260 2.393740 183 132 220
0.361331 5.147110 2.431890 183 132 220
0.694633 4.852900 2.379820 183 132 220
0.234341 5.259410 2.451330 183 132 220
0.104871 5.368670 2.470200 183 132 220
-0.025742 5.485940 2.490990 183 132 220
-0.152541 5.606830 2.512350 183 132 220
0.896082 4.103160 2.247500 183 132 220
0.866812 4.229200 2.269420 183 132 220
0.849079 4.473840 2.312710 183 132 220
0.960431 3.626650 2.163600 183 132 220
1.048620 3.925450 2.216420 183 132 220
1.053480 3.752310 2.185910 183 132 220
-0.285442 5.726950 2.533700 183 132 220
1.114690 3.073700 2.065590 183 132 220
1.098860 2.871010 2.029550 183 132 220
0.998951 3.388700 2.121460 183 132 220
