ply
format ascii 1.0
comment author: F. Lafarge
element vertex 1142
property float x
property float y
property float z
property uchar red
property uchar green
property uchar blue
end_header
0.172943 -6.918300 -3.909050 252 151 219
-0.458862 -6.253120 -4.026890 252 151 219
-0.374679 -6.441610 -3.993520 252 151 219
-0.554677 -6.229950 -4.031080 252 151 219
-0.288588 -6.585950 -3.968160 252 151 219
-0.110306 -6.831350 -3.924690 252 151 219
-0.899800 -5.977880 -4.075130 252 151 219
-1.303650 -2.251700 -4.732010 252 151 219
-1.303650 -2.072840 -4.763660 252 151 219
-1.303080 -1.914200 -4.791690 252 151 219
-1.303080 -1.733440 -4.823530 252 151 219
-1.303080 -1.552680 -4.855370 252 151 219
1.101150 -7.043000 -3.887690 252 151 219
1.101150 -7.221850 -3.856610 252 151 219
1.101150 -7.399950 -3.824960 252 151 219
1.101150 -7.578040 -3.793310 252 151 219
0.926493 -7.605490 -3.788350 252 151 219
0.920582 -7.043000 -3.887690 252 151 219
0.925349 -7.240150 -3.852990 252 151 219
0.744780 -7.061300 -3.884070 252 151 219
0.925349 -7.418250 -3.821340 252 151 219
0.749547 -7.258460 -3.849370 252 151 219
0.750691 -7.445700 -3.816380 252 151 219
-1.303080 -1.371340 -4.887600 252 151 219
-1.303080 -1.190010 -4.919820 252 151 219
-1.303080 -1.009440 -4.951670 252 151 219
-1.303080 -0.828870 -4.983510 252 151 219
-1.303080 -0.647537 -5.015160 252 151 219
-1.303080 -0.466203 -5.046810 252 151 219
-1.303080 -0.285633 -5.078650 252 151 219
-1.450380 -3.728290 -4.471640 252 151 219
-1.512260 -3.571750 -4.499380 252 151 219
-1.507200 -4.032610 -4.417960 252 151 219
-1.657550 -3.816000 -4.456100 252 151 219
-1.475550 -4.396990 -4.353890 252 151 219
-1.625900 -4.180380 -4.392030 252 151 219
-1.641720 -3.998190 -4.424060 252 151 219
-1.610070 -4.362570 -4.360000 252 151 219
-1.432830 -4.623130 -4.314230 252 151 219
-1.433120 -4.853460 -4.273620 252 151 219
-1.513680 -4.699110 -4.300790 252 151 219
-1.594240 -4.544760 -4.327960 252 151 219
-1.498900 -3.200690 -4.565350 252 151 219
-1.540950 -3.316530 -4.544470 252 151 219
-1.613600 -3.438650 -4.522830 252 151 219
-1.686250 -3.560780 -4.501190 252 151 219
-1.552390 -5.024310 -4.243400 252 151 219
-0.566308 -6.395270 -4.001910 252 151 219
-0.489466 -6.563740 -3.972160 252 151 219
-0.202498 -6.730290 -3.942800 252 151 219
-0.387454 -6.699780 -3.948330 252 151 219
-0.724951 -6.195640 -4.037190 252 151 219
-0.828868 -6.163410 -4.042710 252 151 219
-1.102300 -5.853940 -4.097050 252 151 219
-1.304800 -5.730000 -4.118980 252 151 219
-1.480030 -5.320620 -4.191150 252 151 219
-1.488230 -5.462580 -4.166080 252 151 219
-1.487270 -2.072840 -4.763660 252 151 219
-1.487840 -2.231480 -4.735630 252 151 219
-1.486700 -1.914200 -4.791690 252 151 219
-1.470680 -2.506060 -4.686810 252 151 219
-1.486700 -1.733440 -4.823530 252 151 219
-1.486700 -1.552680 -4.855370 252 151 219
-1.486700 -1.371340 -4.887600 252 151 219
-1.460010 -2.746690 -4.645250 252 151 219
-1.486700 -1.190010 -4.919820 252 151 219
-1.486700 -1.009440 -4.951670 252 151 219
-1.486700 -0.828870 -4.983510 252 151 219
-1.486700 -0.647537 -5.015160 252 151 219
-1.486700 -0.466203 -5.046810 252 151 219
-1.486700 -0.285633 -5.078650 252 151 219
-1.830300 -4.083610 -4.409100 252 151 219
-1.758890 -3.682910 -4.479550 252 151 219
-1.802510 -3.792160 -4.460340 252 151 219
-1.814470 -4.265800 -4.377060 252 151 219
-1.751360 -4.580420 -4.321480 252 151 219
-1.713510 -4.715600 -4.297740 252 151 219
-1.632950 -4.869960 -4.270570 252 151 219
-1.630850 -3.073890 -4.588040 252 151 219
-1.672890 -3.189720 -4.567160 252 151 219
-1.714940 -3.305560 -4.546290 252 151 219
-1.606450 -2.866050 -4.623890 252 151 219
-1.615030 -2.766710 -4.641630 252 151 219
-1.620360 -2.646390 -4.662410 252 151 219
-1.671660 -5.195160 -4.213170 252 151 219
-1.752220 -5.040800 -4.240340 252 151 219
-1.700450 -2.930310 -4.613020 252 151 219
-1.649540 -2.495760 -4.689290 252 151 219
-1.658120 -2.358470 -4.713700 252 151 219
-1.773670 -3.054530 -4.591000 252 151 219
-1.770050 -2.786730 -4.638000 252 151 219
-1.843270 -2.910950 -4.615980 252 151 219
-1.669740 -2.216800 -4.738110 252 151 219
0.556774 -7.081330 -3.880450 252 151 219
0.367051 -7.106880 -3.876260 252 151 219
-0.018114 -6.932410 -3.906570 252 151 219
0.175994 -7.120980 -3.873780 252 151 219
-0.301363 -6.844120 -3.922970 252 151 219
-0.585280 -6.540570 -3.976360 252 151 219
-0.633188 -6.528980 -3.978460 252 151 219
-0.757937 -6.348940 -4.010300 252 151 219
-0.209172 -6.945190 -3.904860 252 151 219
-0.502241 -6.821910 -3.926970 252 151 219
-1.020500 -6.081040 -4.056830 252 151 219
-0.949568 -6.266570 -4.024410 252 151 219
-1.223000 -5.957100 -4.078750 252 151 219
-1.496430 -5.604540 -4.141000 252 151 219
-1.482130 -5.739720 -4.117170 252 151 219
-1.688060 -5.479070 -4.163030 252 151 219
-1.459250 -5.862710 -4.095530 252 151 219
-1.418350 -5.976260 -4.075410 252 151 219
-1.377450 -6.089810 -4.055300 252 151 219
-1.141200 -6.184190 -4.038520 252 151 219
-1.871480 -5.211650 -4.210120 252 151 219
-1.879680 -5.353600 -4.185050 252 151 219
-1.832780 -4.886450 -4.267510 252 151 219
0.559825 -7.284010 -3.845170 252 151 219
0.370102 -7.309560 -3.840980 252 151 219
-0.012013 -7.152640 -3.868240 252 151 219
0.182096 -7.341220 -3.835450 252 151 219
-0.203070 -7.165420 -3.866530 252 151 219
-0.729002 -6.505820 -3.982650 252 151 219
-0.604253 -6.685860 -3.950810 252 151 219
-0.700067 -6.662700 -3.955000 252 151 219
-0.776909 -6.494230 -3.984750 252 151 219
-0.400229 -6.957960 -3.903140 252 151 219
-0.388026 -7.198400 -3.860430 252 151 219
-1.669180 -2.058160 -4.766140 252 151 219
-1.670510 -1.913440 -4.791690 252 151 219
-1.670510 -1.732670 -4.823530 252 151 219
-1.670510 -1.552680 -4.855370 252 151 219
-1.670510 -1.371340 -4.887600 252 151 219
0.560969 -7.471260 -3.812180 252 151 219
0.385928 -7.500620 -3.807420 252 151 219
-1.670510 -1.190010 -4.919820 252 151 219
-1.670510 -1.009440 -4.951670 252 151 219
-1.670510 -0.828870 -4.983510 252 151 219
-1.670510 -0.647537 -5.015160 252 151 219
-1.670510 -0.466203 -5.046810 252 151 219
-1.670510 -0.285633 -5.078650 252 151 219
-1.846130 -3.901420 -4.441130 252 151 219
-1.860240 -3.549810 -4.503010 252 151 219
-1.947470 -3.768330 -4.464580 252 151 219
-2.034700 -3.986850 -4.426160 252 151 219
-2.048810 -3.635240 -4.488040 252 151 219
-2.092430 -3.744490 -4.468830 252 151 219
-2.005200 -3.525980 -4.507250 252 151 219
-1.798640 -4.447990 -4.345030 252 151 219
-2.018880 -4.169030 -4.394130 252 151 219
-2.003050 -4.351220 -4.362090 252 151 219
-1.908480 -4.616080 -4.314990 252 151 219
-2.065590 -4.651730 -4.308510 252 151 219
-1.846890 -3.178760 -4.568970 252 151 219
-1.888930 -3.294590 -4.548100 252 151 219
-1.961580 -3.416720 -4.526460 252 151 219
-1.952040 -5.057290 -4.237290 252 151 219
-1.989890 -4.922110 -4.261030 252 151 219
-0.795881 -6.639530 -3.959200 252 151 219
-0.905998 -6.483460 -3.986560 252 151 219
-0.719039 -6.807990 -3.929450 252 151 219
-0.617028 -6.944040 -3.905620 252 151 219
-0.766947 -6.796410 -3.931550 252 151 219
-1.001810 -6.442280 -3.993610 252 151 219
-1.097630 -6.401090 -4.000670 252 151 219
-1.193450 -6.359900 -4.007720 252 151 219
-1.336550 -6.203350 -4.035180 252 151 219
-1.659460 -5.749450 -4.115360 252 151 219
-1.613700 -5.995420 -4.072070 252 151 219
-1.865380 -5.488800 -4.161210 252 151 219
-1.851080 -5.623980 -4.137380 252 151 219
-1.836780 -5.759170 -4.113550 252 151 219
-1.852990 -2.057390 -4.766140 252 151 219
-1.851650 -2.202120 -4.740590 252 151 219
-1.854320 -1.912670 -4.791690 252 151 219
-1.828390 -2.485460 -4.691770 252 151 219
-1.854320 -1.732670 -4.823530 252 151 219
-1.799220 -2.636090 -4.664890 252 151 219
-1.854320 -1.552680 -4.855370 252 151 219
-1.854320 -1.371340 -4.887600 252 151 219
-1.854320 -1.190010 -4.919820 252 151 219
-1.854320 -1.009440 -4.951670 252 151 219
-1.854320 -0.828870 -4.983510 252 151 219
-1.854320 -0.647537 -5.015160 252 151 219
-1.854320 -0.466203 -5.046810 252 151 219
-1.854320 -0.285633 -5.078650 252 151 219
-2.179660 -3.963010 -4.430400 252 151 219
-2.136050 -3.853750 -4.449610 252 151 219
-2.223280 -4.072270 -4.411190 252 151 219
-2.207460 -4.254460 -4.379160 252 151 219
-2.160170 -4.386880 -4.355610 252 151 219
-2.112880 -4.519310 -4.332060 252 151 219
-2.027740 -4.786920 -4.284770 252 151 219
-1.916480 -3.035180 -4.593960 252 151 219
-1.989700 -3.159400 -4.571930 252 151 219
-2.062920 -3.283630 -4.549910 252 151 219
-1.922870 -2.790160 -4.637330 252 151 219
-1.898850 -2.701590 -4.652970 252 151 219
-1.928020 -2.550960 -4.679850 252 151 219
-2.027650 -2.616450 -4.667940 252 151 219
-2.071310 -5.228140 -4.207070 252 151 219
-2.147010 -4.957760 -4.254550 252 151 219
-1.996090 -2.914390 -4.615310 252 151 219
-1.948420 -2.404800 -4.705500 252 151 219
-2.068450 -2.324150 -4.719230 252 151 219
-2.056820 -2.465820 -4.694820 252 151 219
-2.043280 -2.189350 -4.742880 252 151 219
-2.069310 -3.038610 -4.593290 252 151 219
-2.075700 -2.793590 -4.636660 252 151 219
-2.148920 -2.917820 -4.614640 252 151 219
-2.044620 -2.044620 -4.768430 252 151 219
-0.005911 -7.372870 -3.829920 252 151 219
0.197922 -7.532270 -3.801890 252 151 219
-0.190867 -7.405860 -3.823810 252 151 219
-0.504624 -7.093430 -3.879020 252 151 219
-0.814854 -6.784830 -3.933640 252 151 219
-0.721423 -7.079510 -3.881490 252 151 219
-0.833826 -6.930120 -3.908090 252 151 219
-1.054060 -6.617980 -3.962820 252 151 219
-1.245690 -6.535610 -3.976930 252 151 219
-1.531890 -6.222520 -4.031840 252 151 219
-1.813900 -5.882160 -4.091910 252 151 219
-1.791020 -6.005150 -4.070260 252 151 219
-2.042710 -5.498520 -4.159400 252 151 219
-2.014110 -5.768900 -4.111740 252 151 219
-1.768140 -6.128130 -4.048620 252 151 219
-1.727240 -6.241680 -4.028510 252 151 219
-1.388790 -6.379060 -4.004390 252 151 219
-1.584140 -6.398220 -4.001050 252 151 219
-2.217180 -5.246160 -4.204020 252 151 219
-2.194300 -5.369140 -4.182380 252 151 219
-2.255030 -5.110970 -4.227760 252 151 219
-2.165700 -5.639530 -4.134710 252 151 219
-2.222710 -4.687390 -4.302030 252 151 219
0.023262 -7.562210 -3.796360 252 151 219
-0.375823 -7.438840 -3.817710 252 151 219
-0.161694 -7.595200 -3.790260 252 151 219
0.052435 -7.751550 -3.762800 252 151 219
0.140051 -7.702640 -3.568030 252 151 219
-0.492421 -7.333880 -3.836300 252 151 219
-0.609019 -7.228910 -3.854900 252 151 219
-0.943942 -6.774050 -3.935460 252 151 219
-0.596817 -7.469350 -3.812180 252 151 219
-0.713415 -7.364390 -3.830770 252 151 219
-0.371628 -7.628760 -3.784150 252 151 219
-0.825818 -7.214990 -3.857370 252 151 219
-2.037950 -1.912670 -4.791690 252 151 219
-2.037950 -1.732670 -4.823530 252 151 219
-2.037950 -1.552680 -4.855370 252 151 219
-2.037950 -1.371340 -4.887600 252 151 219
-2.037950 -1.190010 -4.919820 252 151 219
-2.037950 -1.009440 -4.951670 252 151 219
-2.037950 -0.828870 -4.983510 252 151 219
-2.037950 -0.647537 -5.015160 252 151 219
-2.037950 -0.466203 -5.046810 252 151 219
-2.037950 -0.285633 -5.078650 252 151 219
-2.237390 -3.720660 -4.473070 252 151 219
-2.150160 -3.502140 -4.511490 252 151 219
-2.221280 -3.351990 -4.537990 252 151 219
-2.308510 -3.570500 -4.499570 252 151 219
-2.324620 -3.939180 -4.434650 252 151 219
-2.395750 -3.789020 -4.461150 252 151 219
-2.411860 -4.157690 -4.396220 252 151 219
-2.379630 -3.420350 -4.526080 252 151 219
-2.466870 -3.638860 -4.487660 252 151 219
-2.142530 -3.162840 -4.571260 252 151 219
-2.317280 -4.422540 -4.349130 252 151 219
-2.347700 -4.778340 -4.286210 252 151 219
-2.330730 -4.840600 -4.275240 252 151 219
-2.411950 -4.583660 -4.320720 252 151 219
-2.292880 -4.975790 -4.251500 252 151 219
-2.506630 -4.744780 -4.292310 252 151 219
-2.300890 -3.231200 -4.559350 252 151 219
-1.073030 -6.763280 -3.937270 252 151 219
-0.958911 -7.061780 -3.884540 252 151 219
-1.092000 -6.908580 -3.911720 252 151 219
-1.202120 -6.752510 -3.939080 252 151 219
-1.297930 -6.711320 -3.946140 252 151 219
-1.441040 -6.554770 -3.973590 252 151 219
-1.636390 -6.573940 -3.970250 252 151 219
-1.968350 -6.014870 -4.068460 252 151 219
-1.922590 -6.260840 -4.025170 252 151 219
-2.317280 -5.510150 -4.157690 252 151 219
-2.133090 -5.888260 -4.090670 252 151 219
-2.288680 -5.780530 -4.110020 252 151 219
-2.087330 -6.134230 -4.047380 252 151 219
-2.221570 -1.912670 -4.791690 252 151 219
-2.234910 -2.176570 -4.745160 252 151 219
-2.156450 -2.531320 -4.682900 252 151 219
-2.221570 -1.732670 -4.823530 252 151 219
-2.180470 -2.619890 -4.667270 252 151 219
-2.221570 -1.552680 -4.855370 252 151 219
-2.221570 -1.371340 -4.887600 252 151 219
-2.221570 -1.190010 -4.919820 252 151 219
-2.221570 -1.009440 -4.951670 252 151 219
-2.221570 -0.828870 -4.983510 252 151 219
-2.221570 -0.647537 -5.015160 252 151 219
-2.221570 -0.466203 -5.046810 252 151 219
-2.221570 -0.285633 -5.078650 252 151 219
-2.482980 -4.007530 -4.422730 252 151 219
-2.554100 -3.857380 -4.449230 252 151 219
-2.552290 -4.196490 -4.389550 252 151 219
-2.506530 -4.318810 -4.367810 252 151 219
-2.623410 -4.046340 -4.416050 252 151 219
-2.601200 -4.479930 -4.339400 252 151 219
-2.222140 -3.042040 -4.592620 252 151 219
-2.380490 -3.110400 -4.580700 252 151 219
-2.204500 -2.708460 -4.651630 252 151 219
-2.228520 -2.797030 -4.636000 252 151 219
-2.285250 -2.446180 -4.697870 252 151 219
-2.333300 -2.623320 -4.666600 252 151 219
-2.363040 -5.264180 -4.200970 252 151 219
-2.438740 -4.993810 -4.248450 252 151 219
-2.508910 -5.282200 -4.197920 252 151 219
-2.472680 -4.869290 -4.270380 252 151 219
-2.301740 -2.921250 -4.613980 252 151 219
-2.403470 -2.247310 -4.733150 252 151 219
-2.428640 -2.382110 -4.709500 252 151 219
-2.409000 -2.140530 -4.752030 252 151 219
-2.402330 -2.008580 -4.775290 252 151 219
-2.381350 -2.800460 -4.635330 252 151 219
-2.460100 -2.989610 -4.602060 252 151 219
-2.404610 -1.880440 -4.797790 252 151 219
0.052435 -7.716660 -3.560110 252 151 219
-0.157498 -7.785110 -3.756700 252 151 219
0.052435 -7.844600 -3.648970 252 151 219
-0.367432 -7.818670 -3.750600 252 151 219
-0.950903 -7.346650 -3.833820 252 151 219
-1.084000 -7.193440 -3.861000 252 151 219
-1.217090 -7.040240 -3.888170 252 151 219
-1.493280 -6.730480 -3.942800 252 151 219
-1.350180 -6.887030 -3.915340 252 151 219
-1.779490 -6.417390 -3.997710 252 151 219
-1.790170 -6.559920 -3.972640 252 151 219
-2.252080 -6.007620 -4.069600 252 151 219
-2.463150 -5.528170 -4.154640 252 151 219
-2.440270 -5.651160 -4.132990 252 151 219
-2.486030 -5.405190 -4.176280 252 151 219
-2.407670 -5.899890 -4.088950 252 151 219
-2.061400 -6.384210 -4.003530 252 151 219
-1.943940 -6.545900 -3.975020 252 151 219
-1.800840 -6.702450 -3.947560 252 151 219
-2.546760 -5.147010 -4.221660 252 151 219
-2.597670 -4.960250 -4.254560 252 151 219
-2.563260 -5.792160 -4.108300 252 151 219
-2.631610 -4.835730 -4.276480 252 151 219
0.052435 -7.970060 -3.724290 252 151 219
0.052435 -7.809710 -3.446270 252 151 219
-0.592621 -7.659260 -3.778630 252 151 219
-0.817810 -7.499860 -3.806650 252 151 219
-0.570121 -7.849750 -3.745070 252 151 219
-0.795310 -7.690350 -3.773100 252 151 219
-0.157498 -8.003630 -3.718180 252 151 219
0.052435 -7.937650 -3.535130 252 151 219
0.052435 -8.063110 -3.610450 252 151 219
0.052435 -7.681760 -3.357420 252 151 219
0.052435 -7.902760 -3.332440 252 151 219
0.052435 -8.030700 -3.421290 252 151 219
-0.902947 -7.623230 -3.785010 252 151 219
-0.880447 -7.813710 -3.751450 252 151 219
-0.772810 -7.880830 -3.739540 252 151 219
-1.087620 -7.381170 -3.827720 252 151 219
-1.091240 -7.568890 -3.794450 252 151 219
-0.363810 -8.003630 -3.718180 252 151 219
-0.566498 -8.034700 -3.712660 252 151 219
-2.404610 -1.700450 -4.829630 252 151 219
-2.405380 -1.552680 -4.855370 252 151 219
-2.405380 -1.371340 -4.887600 252 151 219
-2.405380 -1.190010 -4.919820 252 151 219
-2.405380 -1.009440 -4.951670 252 151 219
-2.405380 -0.828870 -4.983510 252 151 219
-2.405380 -0.647537 -5.015160 252 151 219
-2.405380 -0.466203 -5.046810 252 151 219
-2.405380 -0.285633 -5.078650 252 151 219
-2.537990 -3.488700 -4.514160 252 151 219
-2.625230 -3.707220 -4.475740 252 151 219
-2.459240 -3.299550 -4.547430 252 151 219
-2.538850 -3.178760 -4.568790 252 151 219
-2.617600 -3.367910 -4.535510 252 151 219
-2.696350 -3.557060 -4.502240 252 151 219
-2.694540 -3.896180 -4.442560 252 151 219
-2.765660 -3.746020 -4.469060 252 151 219
-2.692730 -4.235300 -4.382870 252 151 219
-2.763850 -4.085140 -4.409380 252 151 219
-2.695110 -3.241870 -4.557820 252 151 219
-2.773860 -3.431020 -4.524550 252 151 219
-2.826680 -3.620270 -4.490990 252 151 219
-2.741630 -4.518730 -4.332730 252 151 219
-2.695870 -4.641050 -4.310990 252 151 219
-2.787400 -4.396420 -4.354470 252 151 219
-2.790540 -4.802170 -4.282580 252 151 219
-2.722660 -5.051200 -4.238730 252 151 219
-2.882060 -4.557540 -4.326060 252 151 219
-2.882350 -4.940130 -4.258170 252 151 219
-2.616360 -3.052720 -4.591090 252 151 219
-1.353800 -7.074750 -3.882070 252 151 219
-1.224330 -7.415680 -3.821620 252 151 219
-1.503960 -6.873020 -3.917720 252 151 219
-1.512830 -7.012490 -3.893030 252 151 219
-1.657740 -6.859000 -3.920110 252 151 219
-1.811520 -6.844980 -3.922490 252 151 219
-1.965300 -6.830970 -3.924870 252 151 219
-1.820390 -6.984460 -3.897800 252 151 219
-2.082750 -6.669270 -3.953380 252 151 219
-2.206320 -6.253600 -4.026310 252 151 219
-2.371060 -6.126990 -4.048530 252 151 219
-2.200210 -6.507580 -3.981890 252 151 219
-2.345130 -6.376960 -4.004670 252 151 219
-2.609020 -5.546190 -4.151590 252 151 219
-2.654780 -5.300220 -4.194870 252 151 219
-2.707600 -5.672890 -4.129280 252 151 219
-2.526650 -6.019250 -4.067880 252 151 219
-2.667080 -5.909330 -4.087520 252 151 219
-2.490040 -6.246350 -4.027460 252 151 219
-2.587660 -1.848220 -4.803890 252 151 219
-2.583090 -2.104490 -4.758890 252 151 219
-2.588420 -1.700450 -4.829630 252 151 219
-2.572030 -2.318050 -4.721140 252 151 219
-2.542670 -2.454760 -4.696530 252 151 219
-2.589190 -1.552680 -4.855370 252 151 219
-2.589190 -1.371340 -4.887600 252 151 219
-2.589190 -1.190010 -4.919820 252 151 219
-2.589190 -1.009440 -4.951670 252 151 219
-2.589190 -0.828870 -4.983510 252 151 219
-2.589190 -0.647537 -5.015160 252 151 219
-2.589190 -0.466203 -5.046810 252 151 219
-2.589190 -0.285633 -5.078650 252 151 219
-2.834970 -3.934980 -4.435880 252 151 219
-2.904280 -4.123940 -4.402710 252 151 219
-2.833160 -4.274100 -4.376200 252 151 219
-2.965300 -3.998190 -4.424640 252 151 219
-3.026310 -3.872440 -4.446560 252 151 219
-2.973590 -4.312900 -4.369530 252 151 219
-2.963860 -4.704260 -4.300120 252 151 219
-2.537610 -2.863570 -4.624370 252 151 219
-2.693870 -2.926680 -4.613400 252 151 219
-2.772620 -3.115840 -4.580130 252 151 219
-2.590710 -2.631900 -4.665270 252 151 219
-2.642290 -2.779290 -4.639330 252 151 219
-2.753360 -5.426930 -4.172560 252 151 219
-2.797500 -5.251410 -4.203360 252 151 219
-2.906280 -5.327110 -4.189920 252 151 219
-2.940220 -5.202590 -4.211850 252 151 219
-2.750880 -2.234530 -4.735630 252 151 219
-2.756420 -2.127750 -4.754510 252 151 219
-2.758700 -1.999620 -4.777010 252 151 219
-2.800080 -2.463340 -4.695200 252 151 219
-2.775670 -1.844600 -4.804460 252 151 219
-2.746970 -2.695010 -4.654300 252 151 219
-2.850130 -2.989800 -4.602440 252 151 219
-2.776440 -1.696830 -4.830200 252 151 219
0.052435 -7.650680 -3.166930 252 151 219
-0.153876 -8.188580 -3.685770 252 151 219
0.052435 -8.188580 -3.685770 252 151 219
0.052435 -8.156160 -3.496610 252 151 219
-0.360187 -8.188580 -3.685770 252 151 219
-0.548193 -8.204410 -3.682710 252 151 219
-0.754505 -8.050530 -3.709600 252 151 219
-0.988085 -7.746600 -3.763370 252 151 219
-1.357430 -7.262470 -3.848790 252 151 219
-1.176380 -7.692250 -3.772810 252 151 219
-1.361050 -7.450190 -3.815520 252 151 219
-1.516450 -7.200210 -3.859760 252 151 219
-1.675470 -7.137960 -3.870720 252 151 219
-2.630470 -6.136430 -4.047100 252 151 219
-2.851940 -5.553630 -4.150250 252 151 219
-2.806180 -5.799600 -4.106970 252 151 219
-2.770900 -6.026500 -4.066730 252 151 219
-2.339020 -6.630940 -3.960240 252 151 219
-2.483940 -6.500330 -3.983030 252 151 219
-2.221560 -6.792640 -3.931740 252 151 219
-2.098010 -6.943280 -3.905040 252 151 219
-1.829250 -7.123940 -3.873100 252 151 219
-1.983030 -7.109930 -3.875490 252 151 219
-2.974160 -5.078080 -4.233770 252 151 219
-2.910000 -5.916770 -4.086180 252 151 219
-2.950520 -5.680330 -4.127940 252 151 219
-3.045670 -4.850990 -4.274190 252 151 219
0.052435 -8.281630 -3.571930 252 151 219
-0.050720 -8.297840 -3.666510 252 151 219
0.052435 -7.871680 -3.143100 252 151 219
0.140051 -7.636670 -3.174850 252 151 219
0.052435 -8.123750 -3.307460 252 151 219
-0.965585 -7.937080 -3.729810 252 151 219
-0.736200 -8.220230 -3.679660 252 151 219
-0.947280 -8.106780 -3.699870 252 151 219
-1.073220 -7.869960 -3.741730 252 151 219
-0.257031 -8.297840 -3.666510 252 151 219
-0.153876 -8.407100 -3.647250 252 151 219
0.052435 -8.249210 -3.382780 252 151 219
0.052435 -8.407100 -3.647250 252 151 219
0.052435 -8.374680 -3.458100 252 151 219
0.052435 -7.619600 -2.976450 252 151 219
0.052435 -7.840600 -2.952620 252 151 219
0.052435 -8.092670 -3.118120 252 151 219
0.052435 -8.217470 -3.194110 252 151 219
0.052435 -8.342260 -3.270090 252 151 219
-1.261520 -7.815620 -3.751170 252 151 219
-1.158360 -7.993330 -3.720090 252 151 219
-0.919250 -8.244070 -3.675460 252 151 219
-1.364670 -7.637910 -3.782250 252 151 219
-1.520070 -7.387930 -3.826480 252 151 219
-1.523690 -7.575650 -3.793210 252 151 219
-0.365526 -8.407100 -3.647250 252 151 219
-0.553533 -8.422920 -3.644200 252 151 219
-0.753170 -8.418530 -3.644960 252 151 219
-2.772810 -1.552680 -4.855370 252 151 219
-2.772810 -1.371340 -4.887600 252 151 219
-2.772810 -1.190010 -4.919820 252 151 219
-2.772810 -1.009440 -4.951670 252 151 219
-2.772810 -0.828870 -4.983510 252 151 219
-2.772810 -0.647537 -5.015160 252 151 219
-2.772810 -0.466203 -5.046810 252 151 219
-2.772810 -0.285633 -5.078650 252 151 219
-2.851370 -3.304990 -4.546860 252 151 219
-2.904190 -3.494230 -4.513300 252 151 219
-2.957000 -3.683480 -4.479740 252 151 219
-2.928880 -3.178950 -4.569170 252 151 219
-2.981700 -3.368190 -4.535610 252 151 219
-3.034510 -3.557440 -4.502050 252 151 219
-3.087330 -3.746690 -4.468490 252 151 219
-3.055390 -4.459620 -4.343600 252 151 219
-3.095630 -4.061400 -4.413390 252 151 219
-3.160930 -4.225860 -4.384400 252 151 219
-3.059210 -3.242160 -4.557920 252 151 219
-3.006390 -3.052910 -4.591480 252 151 219
-3.112020 -3.431400 -4.524360 252 151 219
-3.164840 -3.620650 -4.490800 252 151 219
-3.137190 -4.606350 -4.317670 252 151 219
-3.226230 -4.390310 -4.355420 252 151 219
-3.137470 -4.988940 -4.249780 252 151 219
-3.218990 -4.753080 -4.291730 252 151 219
-3.065970 -5.216040 -4.209370 252 151 219
-3.308030 -4.537040 -4.329490 252 151 219
-3.229280 -5.126900 -4.225380 252 151 219
-3.300790 -4.899800 -4.265800 252 151 219
-2.954810 -2.905520 -4.617410 252 151 219
-1.679090 -7.325680 -3.837450 252 151 219
-1.531610 -7.687670 -3.773670 252 151 219
-1.838120 -7.263420 -3.848410 252 151 219
-2.230720 -7.055590 -3.885210 252 151 219
-2.354270 -6.904950 -3.911910 252 151 219
-2.115740 -7.222230 -3.855660 252 151 219
-2.000760 -7.388880 -3.826100 252 151 219
-2.477830 -6.754310 -3.938600 252 151 219
-2.606060 -6.360760 -4.007340 252 151 219
-2.734300 -6.253600 -4.026310 252 151 219
-2.599960 -6.614740 -3.962910 252 151 219
-2.722090 -6.475160 -3.987220 252 151 219
-3.004860 -5.453810 -4.167610 252 151 219
-3.049100 -5.807040 -4.105630 252 151 219
-3.103440 -5.580510 -4.145300 252 151 219
-2.874730 -6.143670 -4.045950 252 151 219
-3.013820 -6.033940 -4.065400 252 151 219
-2.850320 -6.368000 -4.006200 252 151 219
-2.963680 -1.840980 -4.805030 252 151 219
-2.946710 -1.996000 -4.777580 252 151 219
-2.960050 -1.696830 -4.830200 252 151 219
-2.864910 -2.307180 -4.722660 252 151 219
-2.929740 -2.151020 -4.750120 252 151 219
-2.956430 -1.552680 -4.855370 252 151 219
-2.948520 -2.429780 -4.701020 252 151 219
-2.851660 -2.610730 -4.669270 252 151 219
-3.013350 -2.273620 -4.728480 252 151 219
-2.956430 -1.371340 -4.887600 252 151 219
-2.956430 -1.190010 -4.919820 252 151 219
-2.956430 -1.009440 -4.951670 252 151 219
-2.956430 -0.828870 -4.983510 252 151 219
-2.956430 -0.647537 -5.015160 252 151 219
-2.956430 -0.466203 -5.046810 252 151 219
-2.956430 -0.285633 -5.078650 252 151 219
-3.217660 -3.809900 -4.457240 252 151 219
-3.282960 -3.974360 -4.428260 252 151 219
-3.348270 -4.138810 -4.399280 252 151 219
-3.411190 -3.753460 -4.467340 252 151 219
-3.238440 -3.508340 -4.510630 252 151 219
-3.457530 -3.921640 -4.437790 252 151 219
-3.389830 -4.683770 -4.303550 252 151 219
-2.903230 -2.758130 -4.643340 252 151 219
-3.132810 -3.129850 -4.577750 252 151 219
-3.157780 -5.353990 -4.184960 252 151 219
-3.350740 -5.378970 -4.180770 252 151 219
-3.084090 -2.144540 -4.751360 252 151 219
-3.053300 -2.054250 -4.767280 252 151 219
-3.096960 -2.396230 -4.706840 252 151 219
-3.070270 -1.899230 -4.794740 252 151 219
-3.032130 -2.552390 -4.679370 252 151 219
-3.083710 -2.699780 -4.653440 252 151 219
-3.180570 -2.518830 -4.685190 252 151 219
-3.167700 -2.267140 -4.729720 252 151 219
-3.176850 -1.957490 -4.784440 252 151 219
-3.135290 -2.847170 -4.627520 252 151 219
-3.197260 -3.026980 -4.595770 252 151 219
-3.190200 -1.658320 -4.837060 252 151 219
-3.156070 -1.520270 -4.861470 252 151 219
-3.193820 -1.802470 -4.811890 252 151 219
0.052435 -7.810660 -2.762900 252 151 219
-0.050720 -8.516350 -3.627990 252 151 219
-0.262370 -8.516350 -3.627990 252 151 219
0.052435 -8.500150 -3.533410 252 151 219
0.052435 -8.467730 -3.345410 252 151 219
-0.370865 -8.625610 -3.608730 252 151 219
-0.570503 -8.621230 -3.609500 252 151 219
-0.936220 -8.442370 -3.640760 252 151 219
-1.102300 -8.267900 -3.671270 252 151 219
-1.386600 -7.982270 -3.721810 252 151 219
-1.682710 -7.513400 -3.804170 252 151 219
-1.489750 -7.804560 -3.752880 252 151 219
-1.698540 -7.737440 -3.765090 252 151 219
-1.841740 -7.451140 -3.815140 252 151 219
-2.978550 -6.260840 -4.025170 252 151 219
-3.246260 -5.818480 -4.103920 252 151 219
-3.218230 -6.033940 -4.065400 252 151 219
-2.600240 -6.861370 -3.919630 252 151 219
-2.715990 -6.729150 -3.942800 252 151 219
-2.486990 -7.017250 -3.892080 252 151 219
-2.838120 -6.589570 -3.967110 252 151 219
-2.363430 -7.167890 -3.865380 252 151 219
-2.248450 -7.334540 -3.835830 252 151 219
-1.849650 -7.563160 -3.795600 252 151 219
-2.128320 -7.470970 -3.811800 252 151 219
-3.182950 -6.260840 -4.025170 252 151 219
-3.300600 -5.591960 -4.143580 252 151 219
-3.492990 -4.944420 -4.257800 252 151 219
0.052435 -8.625610 -3.608730 252 151 219
0.052435 -8.593200 -3.420720 252 151 219
-0.159215 -8.625610 -3.608730 252 151 219
0.052435 -8.061590 -2.928780 252 151 219
0.052435 -8.186390 -3.004760 252 151 219
0.052435 -8.155880 -2.816280 252 151 219
0.052435 -8.031650 -2.739060 252 151 219
0.052435 -8.311190 -3.080750 252 151 219
0.052435 -8.435980 -3.156740 252 151 219
-1.245120 -8.185530 -3.685760 252 151 219
-1.248160 -8.287920 -3.668220 252 151 219
-0.770140 -8.616840 -3.610260 252 151 219
-1.096190 -8.445990 -3.640000 252 151 219
-0.930115 -8.620460 -3.609500 252 151 219
-1.387930 -8.103160 -3.700260 252 151 219
0.052435 -8.560780 -3.232720 252 151 219
0.052435 -8.718280 -3.495570 252 151 219
0.052435 -8.685860 -3.307560 252 151 219
0.052435 -7.559730 -2.594340 252 151 219
0.052435 -7.780720 -2.571840 252 151 219
0.052435 -8.125940 -2.626560 252 151 219
0.052435 -8.001720 -2.549340 252 151 219
0.052435 -8.280100 -2.893510 252 151 219
0.052435 -8.404900 -2.969490 252 151 219
0.052435 -8.374390 -2.781010 252 151 219
0.052435 -8.529700 -3.045470 252 151 219
0.052435 -8.654500 -3.120790 252 151 219
-1.614830 -7.971210 -3.723520 252 151 219
-1.656690 -7.854320 -3.744300 252 151 219
-1.394030 -8.307940 -3.665170 252 151 219
-1.543520 -8.181910 -3.686340 252 151 219
-1.242060 -8.466010 -3.636950 252 151 219
-1.090090 -8.624080 -3.608730 252 151 219
-1.857570 -7.675180 -3.776050 252 151 219
-1.865480 -7.787200 -3.756510 252 151 219
-0.376395 -8.808660 -3.576510 252 151 219
-0.576032 -8.804270 -3.577270 252 151 219
-0.775670 -8.808470 -3.575930 252 151 219
-0.935645 -8.812090 -3.575170 252 151 219
-3.156070 -1.338930 -4.893700 252 151 219
-3.140810 -1.190010 -4.919820 252 151 219
-3.140810 -1.009440 -4.951670 252 151 219
-3.140810 -0.828870 -4.983510 252 151 219
-3.140810 -0.647537 -5.015160 252 151 219
-3.140810 -0.466203 -5.046810 252 151 219
-3.140810 -0.285633 -5.078650 252 151 219
-3.364860 -3.585280 -4.496900 252 151 219
-3.259220 -3.206790 -4.564020 252 151 219
-3.312040 -3.396030 -4.530460 252 151 219
-3.413570 -4.303270 -4.370290 252 151 219
-3.478880 -4.467730 -4.341310 252 151 219
-3.522840 -4.086090 -4.408810 252 151 219
-3.588140 -4.250550 -4.379820 252 151 219
-3.385640 -3.283720 -4.550290 252 151 219
-3.261700 -2.924110 -4.613790 252 151 219
-3.450090 -3.180850 -4.568310 252 151 219
-3.388120 -3.001040 -4.600050 252 151 219
-3.326150 -2.821240 -4.631800 252 151 219
-3.512060 -3.360660 -4.536560 252 151 219
-3.558390 -3.528840 -4.507000 252 151 219
-3.631140 -4.389080 -4.355420 252 151 219
-3.422250 -5.151880 -4.221180 252 151 219
-3.582040 -4.728380 -4.295550 252 151 219
-3.674130 -4.527600 -4.331020 252 151 219
-3.614450 -5.196500 -4.213180 252 151 219
-3.543710 -5.403950 -4.176570 252 151 219
-3.685190 -4.989040 -4.249790 252 151 219
-3.264180 -2.641430 -4.663550 252 151 219
-2.016590 -7.612930 -3.787020 252 151 219
-1.823620 -7.904090 -3.735720 252 151 219
-2.496140 -7.280200 -3.845550 252 151 219
-2.609400 -7.124320 -3.873100 252 151 219
-2.376010 -7.416630 -3.821520 252 151 219
-2.722660 -6.968440 -3.900650 252 151 219
-2.255890 -7.553060 -3.797500 252 151 219
-2.144150 -7.695010 -3.772720 252 151 219
-2.838400 -6.836210 -3.923820 252 151 219
-2.966340 -6.482410 -3.986080 252 151 219
-3.075610 -6.367720 -4.006580 252 151 219
-2.954140 -6.703980 -3.946990 252 151 219
-3.063400 -6.589290 -3.967490 252 151 219
-3.443420 -5.829920 -4.102200 252 151 219
-3.415390 -6.045380 -4.063680 252 151 219
-3.493570 -5.616940 -4.139380 252 151 219
-3.172660 -6.474590 -3.987990 252 151 219
-3.280010 -6.367720 -4.006580 252 151 219
-3.387360 -6.260840 -4.025170 252 151 219
-3.300410 -1.860720 -4.801600 252 151 219
-3.331200 -1.951000 -4.785680 252 151 219
-3.238440 -2.138050 -4.752600 252 151 219
-3.251310 -2.389740 -4.708070 252 151 219
-3.355710 -1.487850 -4.867580 252 151 219
-3.340450 -1.338930 -4.893700 252 151 219
-3.334920 -2.512350 -4.686430 252 151 219
-3.322050 -2.260660 -4.730960 252 151 219
-3.325200 -1.190010 -4.919820 252 151 219
-3.325200 -1.009440 -4.951670 252 151 219
-3.325200 -0.828870 -4.983510 252 151 219
-3.325200 -0.647537 -5.015160 252 151 219
-3.325200 -0.466203 -5.046810 252 151 219
-3.325200 -0.285633 -5.078650 252 151 219
-3.604730 -3.697020 -4.477450 252 151 219
-3.651070 -3.865190 -4.447890 252 151 219
-3.697400 -4.033370 -4.418340 252 151 219
-3.740400 -4.171900 -4.393940 252 151 219
-3.789110 -3.663080 -4.483170 252 151 219
-3.742780 -3.494900 -4.512720 252 151 219
-3.835450 -3.831250 -4.453610 252 151 219
-3.865580 -3.974740 -4.428350 252 151 219
-3.777290 -4.788260 -4.285260 252 151 219
-3.525410 -3.076740 -4.586610 252 151 219
-3.681570 -5.326160 -4.190300 252 151 219
-3.748690 -5.455820 -4.167410 252 151 219
-3.685960 -5.636580 -4.135570 252 151 219
-3.752310 -5.118700 -4.226910 252 151 219
-3.362000 -2.041290 -4.769760 252 151 219
-3.392790 -2.131570 -4.753840 252 151 219
-3.405660 -2.383260 -4.709320 252 151 219
-3.423970 -1.763950 -4.818760 252 151 219
-3.401470 -2.717130 -4.650110 252 151 219
-3.472210 -2.588050 -4.672990 252 151 219
-3.542950 -2.458960 -4.695870 252 151 219
-3.476400 -2.254170 -4.732200 252 151 219
-3.485560 -1.944520 -4.786920 252 151 219
-3.547140 -2.125090 -4.755080 252 151 219
-3.538760 -2.792830 -4.636660 252 151 219
-3.600720 -2.972640 -4.604920 252 151 219
-3.522360 -1.554390 -4.855370 252 151 219
-3.556490 -1.692440 -4.830960 252 151 219
-3.520450 -1.450660 -4.873680 252 151 219
-3.505200 -1.301750 -4.899800 252 151 219
0.052435 -7.752130 -2.381920 252 151 219
0.052435 -8.096960 -2.437600 252 151 219
0.052435 -7.973120 -2.359430 252 151 219
0.052435 -8.250170 -2.703790 252 151 219
-0.164744 -8.808660 -3.576510 252 151 219
0.052435 -8.843360 -3.570410 252 151 219
0.052435 -8.810950 -3.382400 252 151 219
0.052435 -8.779300 -3.196110 252 151 219
-0.381924 -8.991710 -3.544280 252 151 219
-0.581561 -8.995900 -3.542940 252 151 219
-0.781199 -9.000100 -3.541610 252 151 219
-1.240150 -8.640670 -3.605680 252 151 219
-1.083990 -8.815140 -3.575170 252 151 219
-1.392120 -8.482600 -3.633900 252 151 219
-1.656970 -8.115940 -3.697970 252 151 219
-1.546570 -8.284300 -3.668800 252 151 219
-1.699110 -8.260660 -3.672420 252 151 219
-2.032420 -7.836970 -3.747930 252 151 219
-1.842500 -8.103730 -3.700450 252 151 219
-3.269720 -6.581470 -3.969400 252 151 219
-3.635810 -5.849560 -4.098380 252 151 219
-3.605300 -6.050910 -4.063120 252 151 219
-3.577270 -6.266370 -4.024600 252 151 219
-2.845080 -7.075510 -3.881680 252 151 219
-2.960810 -6.943270 -3.904850 252 151 219
-2.731810 -7.231390 -3.854130 252 151 219
-3.058820 -6.806850 -3.928970 252 151 219
-2.618840 -7.360760 -3.831250 252 151 219
-3.160460 -6.696160 -3.948900 252 151 219
-2.503580 -7.498710 -3.807230 252 151 219
-2.383450 -7.635140 -3.783200 252 151 219
-2.271710 -7.777100 -3.758410 252 151 219
-3.377070 -6.474590 -3.987990 252 151 219
-3.565070 -6.464110 -3.989700 252 151 219
-3.832300 -4.923440 -4.261420 252 151 219
-3.887310 -5.058630 -4.237590 252 151 219
-3.819430 -5.248360 -4.204020 252 151 219
0.052435 -8.936030 -3.457240 252 151 219
0.052435 -8.904380 -3.270950 252 151 219
0.052435 -8.345030 -2.593000 252 151 219
0.052435 -8.498620 -2.858230 252 151 219
0.052435 -8.220800 -2.515780 252 151 219
0.052435 -8.469250 -2.670220 252 151 219
0.052435 -8.316050 -2.404040 252 151 219
0.052435 -8.623420 -2.933550 252 151 219
0.052435 -8.748210 -3.008870 252 151 219
-1.569260 -8.486230 -3.633330 252 151 219
-1.390220 -8.657260 -3.602630 252 151 219
-0.929544 -9.003150 -3.541610 252 151 219
-1.234060 -8.831730 -3.572120 252 151 219
-1.077890 -9.006200 -3.541610 252 151 219
0.052435 -8.873010 -3.084180 252 151 219
0.052435 -9.061110 -3.532080 252 151 219
0.052435 -9.029460 -3.345790 252 151 219
-0.164744 -9.026410 -3.538180 252 151 219
0.052435 -8.997810 -3.159500 252 151 219
0.052435 -7.531700 -2.402710 252 151 219
0.052435 -7.503670 -2.211080 252 151 219
0.052435 -7.724090 -2.190300 252 151 219
0.052435 -8.068360 -2.247690 252 151 219
0.052435 -7.944520 -2.169510 252 151 219
0.052435 -8.192210 -2.325870 252 151 219
0.052435 -8.439890 -2.482220 252 151 219
0.052435 -8.288020 -2.215460 252 151 219
0.052435 -8.593480 -2.746500 252 151 219
0.052435 -8.717710 -2.822770 252 151 219
0.052435 -8.564120 -2.558490 252 151 219
0.052435 -8.688340 -2.634760 252 151 219
0.052435 -8.842500 -2.898080 252 151 219
0.052435 -8.967300 -2.973400 252 151 219
-1.884640 -8.248460 -3.674900 252 151 219
-1.721800 -8.462590 -3.636960 252 151 219
-1.567350 -8.660890 -3.602060 252 151 219
-1.892650 -8.448480 -3.639440 252 151 219
-1.388500 -8.852520 -3.568500 252 151 219
-1.232340 -9.026990 -3.537990 252 151 219
-2.157500 -7.909620 -3.735150 252 151 219
-2.051300 -8.036610 -3.712660 252 151 219
-0.394699 -9.144820 -3.516820 252 151 219
-0.594337 -9.149010 -3.515490 252 151 219
-0.177520 -9.179520 -3.510720 252 151 219
-0.758699 -9.167320 -3.512440 252 151 219
-0.903229 -9.167320 -3.512440 252 151 219
-1.051580 -9.170370 -3.512440 252 151 219
-3.509390 -1.170560 -4.922870 252 151 219
-3.509390 -0.989990 -4.954720 252 151 219
-3.508820 -0.828870 -4.983510 252 151 219
-3.508820 -0.647537 -5.015160 252 151 219
-3.508820 -0.466203 -5.046810 252 151 219
-3.508820 -0.285633 -5.078650 252 151 219
-3.702740 -3.323670 -4.542950 252 151 219
-3.662690 -3.152440 -4.573170 252 151 219
-3.783390 -4.310420 -4.369530 252 151 219
-3.826390 -4.448940 -4.345120 252 151 219
-3.869390 -4.587470 -4.320720 252 151 219
-3.895700 -4.118220 -4.403090 252 151 219
-3.938700 -4.256740 -4.378680 252 151 219
-3.981690 -4.395270 -4.354270 252 151 219
-3.676040 -2.868530 -4.623220 252 151 219
-3.853370 -3.115460 -4.579560 252 151 219
-3.609500 -2.663740 -4.659550 252 151 219
-3.893420 -3.286690 -4.549330 252 151 219
-3.933460 -3.457910 -4.519110 252 151 219
-3.973500 -3.629140 -4.488890 252 151 219
-4.023260 -4.535610 -4.329490 252 151 219
-3.924400 -4.722660 -4.296890 252 151 219
-3.979410 -4.857850 -4.273050 252 151 219
-4.064830 -4.675950 -4.304700 252 151 219
-3.886550 -5.378020 -4.181140 252 151 219
-3.954430 -5.188290 -4.214700 252 151 219
-4.021550 -5.317960 -4.191820 252 151 219
-3.953670 -5.507680 -4.158260 252 151 219
-3.890940 -5.688440 -4.126410 252 151 219
-4.034420 -4.993040 -4.249220 252 151 219
-4.089430 -5.128230 -4.225380 252 151 219
-2.176380 -8.109260 -3.699880 252 151 219
-2.070170 -8.236250 -3.677380 252 151 219
-2.741540 -7.441320 -3.816950 252 151 219
-2.626280 -7.579270 -3.792930 252 151 219
-2.854520 -7.311940 -3.839830 252 151 219
-2.967490 -7.182570 -3.862710 252 151 219
-2.511010 -7.717230 -3.768900 252 151 219
-3.065500 -7.046140 -3.886830 252 151 219
-2.396800 -7.849750 -3.745640 252 151 219
-2.282590 -7.982260 -3.722380 252 151 219
-3.163510 -6.909710 -3.910960 252 151 219
-3.366770 -6.688340 -3.950810 252 151 219
-3.265140 -6.799030 -3.930880 252 151 219
-3.828200 -5.869200 -4.094570 252 151 219
-3.797690 -6.070550 -4.059300 252 151 219
-3.767180 -6.271900 -4.024030 252 151 219
-3.554780 -6.677860 -3.952530 252 151 219
-3.754980 -6.469630 -3.989140 252 151 219
-3.674900 -1.754800 -4.819900 252 151 219
-3.613690 -2.329880 -4.718750 252 151 219
-3.685190 -1.413480 -4.879780 252 151 219
-3.689010 -1.620940 -4.843170 252 151 219
-3.693580 -1.151110 -4.925920 252 151 219
-3.680240 -2.534660 -4.682430 252 151 219
-3.693010 -0.989990 -4.954720 252 151 219
-3.692440 -0.828870 -4.983510 252 151 219
-3.692440 -0.647537 -5.015160 252 151 219
-3.692440 -0.466203 -5.046810 252 151 219
-3.692440 -0.285633 -5.078650 252 151 219
-4.003620 -3.772620 -4.463620 252 151 219
-4.033750 -3.916110 -4.438360 252 151 219
-4.063880 -4.059590 -4.413090 252 151 219
-4.094000 -4.203070 -4.387830 252 151 219
-4.145870 -3.589760 -4.496230 252 151 219
-4.165130 -3.735910 -4.470580 252 151 219
-4.126610 -3.443610 -4.521880 252 151 219
-4.086570 -3.272380 -4.552100 252 151 219
-4.195260 -3.879400 -4.445320 252 151 219
-4.225380 -4.022880 -4.420060 252 151 219
-4.119840 -4.811130 -4.280860 252 151 219
-4.174850 -4.946320 -4.257030 252 151 219
-3.813330 -2.944230 -4.609780 252 151 219
-3.746780 -2.739440 -4.646110 252 151 219
-3.736490 -1.935370 -4.788060 252 151 219
-3.739440 -2.181240 -4.745070 252 151 219
-3.805990 -2.386030 -4.708740 252 151 219
-3.872530 -2.590810 -4.672420 252 151 219
-3.834110 -2.086380 -4.761560 252 151 219
-3.931740 -2.237400 -4.735050 252 151 219
-3.928780 -1.991520 -4.778050 252 151 219
-3.939080 -2.795600 -4.636090 252 151 219
-3.840410 -1.547140 -4.856510 252 151 219
-3.838500 -1.443410 -4.874820 252 151 219
-3.859090 -1.288400 -4.901710 252 151 219
-3.925830 -1.745640 -4.821050 252 151 219
-3.863290 -1.157220 -4.924780 252 151 219
0.052435 -7.697200 -2.000580 252 151 219
0.052435 -8.040900 -2.058540 252 151 219
0.052435 -7.917630 -1.979790 252 151 219
0.052435 -8.164180 -2.137290 252 151 219
0.052435 -8.411860 -2.293640 252 151 219
0.052435 -8.260560 -2.026310 252 151 219
0.016398 -9.240730 -3.500240 252 151 219
-0.407475 -9.297930 -3.489370 252 151 219
-0.571837 -9.316230 -3.486320 252 151 219
-0.213557 -9.359140 -3.478880 252 151 219
-0.736200 -9.334540 -3.483270 252 151 219
-0.598722 -9.424920 -3.467250 252 151 219
-1.025260 -9.334540 -3.483270 252 151 219
-1.552680 -8.836120 -3.570980 252 151 219
-1.386790 -9.047770 -3.534370 252 151 219
-1.215750 -9.170370 -3.512440 252 151 219
-1.744490 -8.664510 -3.601490 252 151 219
-2.078180 -8.436270 -3.641920 252 151 219
-2.189820 -8.309090 -3.664510 252 151 219
-3.369820 -6.901890 -3.912860 252 151 219
-3.557830 -6.881110 -3.916490 252 151 219
-3.742780 -6.667370 -3.954240 252 151 219
-3.170180 -7.149010 -3.868820 252 151 219
-2.977220 -7.392510 -3.825530 252 151 219
-3.268190 -7.012580 -3.892940 252 151 219
-2.864240 -7.521880 -3.802650 252 151 219
-2.748980 -7.659830 -3.778630 252 151 219
-2.635230 -7.794170 -3.755170 252 151 219
-2.521880 -7.922390 -3.732860 252 151 219
-2.407670 -8.054910 -3.709600 252 151 219
-2.301460 -8.181910 -3.687110 252 151 219
-3.745830 -6.870630 -3.918200 252 151 219
0.016398 -9.209080 -3.313950 252 151 219
0.014682 -9.180860 -3.128420 252 151 219
0.052435 -8.535130 -2.371150 252 151 219
0.052435 -8.658400 -2.448660 252 151 219
0.052435 -8.812570 -2.711030 252 151 219
0.052435 -8.782630 -2.524930 252 151 219
0.052435 -8.507100 -2.182570 252 151 219
0.052435 -8.383830 -2.105060 252 151 219
0.052435 -8.630370 -2.260080 252 151 219
0.052435 -8.936790 -2.787300 252 151 219
-1.915340 -8.650400 -3.603970 252 151 219
-1.729810 -8.839740 -3.570410 252 151 219
-1.550960 -9.031370 -3.536850 252 151 219
-1.189430 -9.334540 -3.483270 252 151 219
-1.370200 -9.191150 -3.508820 252 151 219
-1.353610 -9.334540 -3.483270 252 151 219
0.014682 -9.150350 -2.942320 252 151 219
-0.019640 -9.420350 -3.468400 252 151 219
-0.021356 -9.392130 -3.282870 252 151 219
-0.023072 -9.363910 -3.097340 252 151 219
0.014682 -9.119840 -2.757370 252 151 219
0.052435 -7.476220 -2.020020 252 151 219
0.052435 -7.448760 -1.828960 252 151 219
0.052435 -7.669750 -1.809520 252 151 219
0.052435 -8.014010 -1.868820 252 151 219
0.052435 -7.890740 -1.790070 252 151 219
0.052435 -8.137290 -1.947570 252 151 219
0.052435 -8.123840 -1.853560 252 151 219
0.052435 -8.110400 -1.759560 252 151 219
0.052435 -8.753650 -2.337590 252 151 219
0.052435 -8.356950 -1.917060 252 151 219
0.052435 -8.602910 -2.073220 252 151 219
0.052435 -8.906850 -2.601200 252 151 219
0.052435 -8.876920 -2.415100 252 151 219
-0.023072 -9.333400 -2.912380 252 151 219
0.014682 -9.089910 -2.571270 252 151 219
-2.197830 -8.509110 -3.629040 252 151 219
-2.086190 -8.636290 -3.606450 252 151 219
-1.905620 -8.818390 -3.574600 252 151 219
-1.715130 -9.014970 -3.539330 252 151 219
-2.076460 -8.804270 -3.577090 252 151 219
-2.309470 -8.381920 -3.651640 252 151 219
-1.538750 -9.183910 -3.509960 252 151 219
-1.522160 -9.327290 -3.484420 252 151 219
-2.421110 -8.254740 -3.674230 252 151 219
-0.240442 -9.467820 -3.459810 252 151 219
-0.461245 -9.515300 -3.451230 252 151 219
-0.851368 -9.497570 -3.454480 252 151 219
-0.122605 -9.572890 -3.441510 252 151 219
-0.995899 -9.497570 -3.454480 252 151 219
-0.691964 -9.591190 -3.437890 252 151 219
-1.167500 -9.507290 -3.452760 252 151 219
-1.331680 -9.507290 -3.452760 252 151 219
-3.862720 -0.996095 -4.953570 252 151 219
-3.876250 -0.828870 -4.983510 252 151 219
-3.876250 -0.647537 -5.015160 252 151 219
-3.876250 -0.466203 -5.046810 252 151 219
-3.876250 -0.285633 -5.078650 252 151 219
-4.046520 -3.101160 -4.582330 252 151 219
-4.029360 -2.921630 -4.613790 252 151 219
-4.135570 -4.343410 -4.363040 252 151 219
-4.177130 -4.483750 -4.338250 252 151 219
-4.218700 -4.624080 -4.313470 252 151 219
-4.260270 -4.764420 -4.288680 252 151 219
-4.253410 -4.166370 -4.394790 252 151 219
-4.281440 -4.309850 -4.369530 252 151 219
-4.323000 -4.450190 -4.344740 252 151 219
-4.262560 -3.078560 -4.586330 252 151 219
-4.245400 -2.899040 -4.617790 252 151 219
-4.279720 -3.258080 -4.554870 252 151 219
-4.298980 -3.404230 -4.529220 252 151 219
-4.318240 -3.550380 -4.503570 252 151 219
-4.337500 -3.696540 -4.477930 252 151 219
-4.364570 -4.590530 -4.319950 252 151 219
-2.532750 -8.127560 -3.696830 252 151 219
-2.553530 -8.278290 -3.670230 252 151 219
-2.330250 -8.532650 -3.625040 252 151 219
-2.986940 -7.602440 -3.788350 252 151 219
-2.873200 -7.736770 -3.764900 252 151 219
-2.759460 -7.871100 -3.741440 252 151 219
-3.178570 -7.348650 -3.833350 252 151 219
-3.188300 -7.558590 -3.796160 252 151 219
-3.372870 -7.115450 -3.874920 252 151 219
-3.381260 -7.315090 -3.839450 252 151 219
-2.646100 -7.999330 -3.719140 252 151 219
-3.560880 -7.094670 -3.878540 252 151 219
-3.748880 -7.073890 -3.882160 252 151 219
-4.023460 -1.896650 -4.794540 252 151 219
-3.991800 -1.473350 -4.869860 252 151 219
-3.998280 -2.442180 -4.698730 252 151 219
-4.012400 -1.318330 -4.896750 252 151 219
-4.032990 -1.163320 -4.923630 252 151 219
-4.046530 -0.996095 -4.953570 252 151 219
-4.064830 -2.646970 -4.662400 252 151 219
-4.060060 -0.828870 -4.983510 252 151 219
-4.060060 -0.647537 -5.015160 252 151 219
-4.060060 -0.466203 -5.046810 252 151 219
-4.060060 -0.285633 -5.078650 252 151 219
-4.356760 -3.842690 -4.452280 252 151 219
-4.384790 -3.986180 -4.427020 252 151 219
-4.412810 -4.129660 -4.401750 252 151 219
-4.440840 -4.273150 -4.376490 252 151 219
-4.486410 -3.530650 -4.506720 252 151 219
-4.505670 -3.676800 -4.481080 252 151 219
-4.467150 -3.384500 -4.532370 252 151 219
-4.519400 -3.822000 -4.455710 252 151 219
-4.472870 -3.220230 -4.561350 252 151 219
-4.478590 -3.055970 -4.590330 252 151 219
-4.533130 -3.967200 -4.430350 252 151 219
-4.561160 -4.110680 -4.405090 252 151 219
-4.155110 -2.773000 -4.640100 252 151 219
-4.121080 -2.047670 -4.768040 252 151 219
-4.140720 -1.790260 -4.813800 252 151 219
-4.124030 -2.293550 -4.725040 252 151 219
-4.190580 -2.498330 -4.688720 252 151 219
-4.218700 -2.198690 -4.741530 252 151 219
-4.280860 -2.624370 -4.666410 252 151 219
-4.238350 -1.941280 -4.787300 252 151 219
-4.316330 -2.349700 -4.715030 252 151 219
-4.335970 -2.092290 -4.760790 252 151 219
-4.173700 -1.654120 -4.838210 252 151 219
-4.355610 -1.834880 -4.806560 252 151 219
-4.371150 -2.750410 -4.644100 252 151 219
-4.191820 -1.494130 -4.866240 252 151 219
-4.212420 -1.339120 -4.893120 252 151 219
-4.230150 -1.176660 -4.921730 252 151 219
-4.373730 -1.674900 -4.834590 252 151 219
-4.243680 -1.009440 -4.951670 252 151 219
0.052435 -7.644590 -1.619030 252 151 219
0.052435 -7.987990 -1.679570 252 151 219
0.052435 -7.865570 -1.599580 252 151 219
0.052435 -8.207650 -1.649060 252 151 219
0.052435 -8.726190 -2.150730 252 151 219
0.052435 -8.589480 -1.979220 252 151 219
0.052435 -8.453040 -1.807130 252 151 219
0.052435 -8.330060 -1.729050 252 151 219
0.052435 -8.576030 -1.885220 252 151 219
-0.124321 -9.544670 -3.255980 252 151 219
-0.343408 -9.620360 -3.432920 252 151 219
-0.225570 -9.725430 -3.414620 252 151 219
-0.227477 -9.695490 -3.231000 252 151 219
-0.966537 -9.660600 -3.425680 252 151 219
-1.138140 -9.670320 -3.423960 252 151 219
-1.702920 -9.167510 -3.512450 252 151 219
-1.890940 -8.993610 -3.543530 252 151 219
-1.690720 -9.320050 -3.485560 252 151 219
-1.513590 -9.506720 -3.453340 252 151 219
-2.351040 -8.683380 -3.598440 252 151 219
-2.462670 -8.556200 -3.621040 252 151 219
-2.574320 -8.429020 -3.643630 252 151 219
-3.565640 -7.293730 -3.843270 252 151 219
-3.753640 -7.272960 -3.846880 252 151 219
-3.389650 -7.514730 -3.803980 252 151 219
-2.997430 -7.813710 -3.751170 252 151 219
-3.205450 -7.774050 -3.758410 252 151 219
-2.883680 -7.948040 -3.727720 252 151 219
-2.770330 -8.076270 -3.705410 252 151 219
-2.680240 -8.221180 -3.680330 252 151 219
-0.126228 -9.514730 -3.072360 252 151 219
-0.126228 -9.484220 -2.887400 252 151 219
-0.023072 -9.302890 -2.727430 252 151 219
0.052435 -8.849460 -2.228240 252 151 219
0.014682 -9.061300 -2.386310 252 151 219
0.052435 -8.699020 -1.963300 252 151 219
0.052435 -8.822000 -2.041380 252 151 219
-2.066740 -8.972260 -3.547720 252 151 219
-2.265040 -8.848130 -3.569270 252 151 219
-1.879880 -9.161410 -3.513590 252 151 219
-1.309750 -9.680050 -3.422250 252 151 219
-1.682140 -9.499470 -3.454480 252 151 219
-1.491650 -9.679470 -3.422820 252 151 219
-0.126228 -9.453720 -2.703590 252 151 219
-0.023072 -9.274290 -2.542470 252 151 219
-0.229384 -9.665550 -3.047380 252 151 219
-0.229384 -9.635040 -2.863570 252 151 219
-0.126228 -9.425110 -2.518640 252 151 219
-0.023072 -9.245690 -2.357520 252 151 219
0.052435 -7.423020 -1.636760 252 151 219
0.052435 -7.397270 -1.444560 252 151 219
0.052435 -7.618840 -1.426830 252 151 219
0.052435 -7.962820 -1.489090 252 151 219
0.052435 -7.840410 -1.409100 252 151 219
0.052435 -8.085240 -1.569070 252 151 219
0.052435 -8.182670 -1.460480 252 151 219
0.052435 -8.427400 -1.619500 252 151 219
