ply
format ascii 1.0
comment author: F. Lafarge
element vertex 1143
property float x
property float y
property float z
property uchar red
property uchar green
property uchar blue
end_header
41.216900 87.235001 14.126800 202 231 134
41.238499 87.234802 14.146000 202 231 134
41.981800 87.250298 14.317100 202 231 134
40.237701 87.210800 13.442000 202 231 134
40.326099 87.213699 13.689100 202 231 134
40.115898 87.209702 13.639600 202 231 134
40.364799 87.214699 13.737200 202 231 134
40.240501 87.212700 13.713000 202 231 134
40.344601 87.216202 13.911900 202 231 134
39.975899 87.208504 13.875200 202 231 134
38.642502 87.043602 13.119100 202 231 134
38.394100 86.998398 13.198800 202 231 134
40.772999 87.224098 13.808800 202 231 134
39.339500 87.175400 13.206700 202 231 134
39.522099 87.196404 13.473100 202 231 134
39.696400 87.201401 13.697300 202 231 134
39.545502 87.199997 13.815100 202 231 134
39.852901 87.206398 13.864300 202 231 134
38.791302 87.074997 13.453800 202 231 134
38.433601 87.006699 13.376800 202 231 134
46.180199 71.478401 -0.130433 202 231 134
46.899899 71.615898 -0.136213 202 231 134
46.980400 71.745300 -0.135582 202 231 134
46.619801 71.346901 -0.134672 202 231 134
45.428299 71.445099 -0.124891 202 231 134
45.126202 71.194298 -0.121646 202 231 134
45.685600 71.401604 -0.128125 202 231 134
45.849300 71.323402 -0.129668 202 231 134
45.916199 71.356796 -0.129796 202 231 134
46.326698 71.280602 -0.133565 202 231 134
45.045200 71.169197 -0.121468 202 231 134
43.398998 71.672302 -0.098591 202 231 134
44.083099 71.385002 -0.109380 202 231 134
44.674999 71.249001 -0.116162 202 231 134
44.828400 71.250000 -0.118043 202 231 134
44.525002 70.984802 -0.115400 202 231 134
43.963902 71.041702 -0.108211 202 231 134
43.743698 71.154404 -0.104451 202 231 134
44.101799 70.894096 -0.110888 202 231 134
42.327900 71.782204 -0.081749 202 231 134
42.205799 71.724602 -0.079510 202 231 134
42.534698 71.630096 -0.086358 202 231 134
42.780201 71.647598 -0.089877 202 231 134
42.918701 71.424698 -0.092600 202 231 134
42.645500 71.315903 -0.088129 202 231 134
43.003700 71.269798 -0.093579 202 231 134
57.690800 79.980301 -0.046473 202 231 134
57.570999 79.393402 -0.059956 202 231 134
57.636902 79.442802 -0.058675 202 231 134
58.017700 79.809303 -0.049324 202 231 134
58.103600 80.127602 -0.040888 202 231 134
57.696201 79.283203 -0.061188 202 231 134
58.158501 80.238197 -0.038952 202 231 134
58.160198 80.155502 -0.039748 202 231 134
58.251801 80.312798 -0.035792 202 231 134
58.121201 79.674500 -0.049984 202 231 134
58.534599 80.701103 -0.025467 202 231 134
58.644699 81.483398 0.015150 202 231 134
58.823799 81.463402 0.011794 202 231 134
58.655998 80.864799 -0.021637 202 231 134
57.841999 79.172096 -0.063272 202 231 134
57.827702 79.106903 -0.064376 202 231 134
57.239799 78.360100 -0.081985 202 231 134
57.322601 78.431000 -0.080253 202 231 134
57.377399 78.365501 -0.080923 202 231 134
57.445900 78.434303 -0.079673 202 231 134
57.667301 78.883301 -0.068787 202 231 134
57.761700 78.804100 -0.070890 202 231 134
57.682899 78.436302 -0.078464 202 231 134
57.772701 78.338600 -0.079815 202 231 134
57.825600 78.651398 -0.073355 202 231 134
57.053600 77.329803 -0.097670 202 231 134
57.368801 77.676300 -0.091221 202 231 134
57.376400 77.586700 -0.092212 202 231 134
56.767502 77.166702 -0.101914 202 231 134
57.688900 77.749702 -0.088640 202 231 134
56.328201 76.753502 -0.109395 202 231 134
56.478600 76.674896 -0.109995 202 231 134
56.367699 76.376999 -0.114014 202 231 134
56.987801 76.929604 -0.103769 202 231 134
56.988499 76.714699 -0.106574 202 231 134
57.224499 76.981201 -0.102644 202 231 134
59.262901 82.371101 0.183693 202 231 134
58.984100 81.783600 0.071612 202 231 134
59.216099 81.949097 0.104945 202 231 134
59.344398 82.290001 0.169362 202 231 134
59.407600 82.695297 0.245586 202 231 134
59.470001 82.802299 0.266386 202 231 134
59.477699 82.917603 0.304917 202 231 134
59.439098 81.834099 0.083612 202 231 134
59.161400 81.464897 0.013089 202 231 134
58.480701 80.363899 -0.033781 202 231 134
59.111801 80.849197 -0.020851 202 231 134
58.512402 80.195297 -0.037095 202 231 134
58.909000 80.487396 -0.028239 202 231 134
58.796700 80.182297 -0.036063 202 231 134
58.495201 79.878700 -0.044986 202 231 134
58.674000 79.946098 -0.041396 202 231 134
59.176102 80.760300 -0.021904 202 231 134
51.061699 72.282799 -0.159722 202 231 134
51.996399 72.851898 -0.157992 202 231 134
50.209000 72.171997 -0.156325 202 231 134
50.195301 71.957199 -0.158491 202 231 134
50.303001 72.087997 -0.157130 202 231 134
50.349201 72.139900 -0.157002 202 231 134
50.137402 71.805702 -0.157956 202 231 134
50.446301 72.014801 -0.159203 202 231 134
50.495300 72.116798 -0.158326 202 231 134
49.383202 71.655098 -0.153792 202 231 134
49.112400 71.498299 -0.153104 202 231 134
49.429401 71.489700 -0.155045 202 231 134
49.295700 71.396698 -0.154881 202 231 134
49.225700 71.371201 -0.154774 202 231 134
48.847198 71.337097 -0.152649 202 231 134
51.077999 72.195396 -0.159603 202 231 134
42.024799 71.569199 -0.076457 202 231 134
41.916100 71.348701 -0.075627 202 231 134
42.219299 71.307297 -0.080920 202 231 134
41.850300 71.366302 -0.073880 202 231 134
41.605099 71.469299 -0.068435 202 231 134
41.400501 71.504501 -0.064210 202 231 134
41.254700 71.528999 -0.061156 202 231 134
40.898701 71.737900 -0.052029 202 231 134
40.136600 72.138000 -0.033858 202 231 134
40.701401 71.596001 -0.048635 202 231 134
40.404598 71.553902 -0.043281 202 231 134
40.780102 71.389000 -0.051214 202 231 134
40.711498 71.406998 -0.049927 202 231 134
40.581001 71.438103 -0.047093 202 231 134
41.466999 71.300400 -0.066854 202 231 134
41.235100 71.273399 -0.061862 202 231 134
41.155701 71.156700 -0.061267 202 231 134
41.531502 71.138000 -0.067874 202 231 134
42.575401 71.227997 -0.087176 202 231 134
42.827999 71.042603 -0.092054 202 231 134
38.331100 72.921700 0.193605 202 231 134
38.870499 72.617401 0.089975 202 231 134
38.574600 72.582497 0.144685 202 231 134
39.193802 72.442299 0.028390 202 231 134
39.764900 72.154099 -0.025696 202 231 134
39.587101 72.090599 -0.021878 202 231 134
39.412201 72.154503 -0.015407 202 231 134
39.830601 71.760803 -0.028497 202 231 134
39.641300 71.848396 -0.024941 202 231 134
39.662399 71.767197 -0.025073 202 231 134
38.464298 72.489700 0.164217 202 231 134
38.814098 72.313904 0.097749 202 231 134
38.533298 72.342400 0.150235 202 231 134
38.895802 72.169197 0.082498 202 231 134
38.496498 72.210800 0.157071 202 231 134
38.808701 71.981400 0.096498 202 231 134
45.065399 70.971100 -0.122954 202 231 134
47.163700 71.326698 -0.139763 202 231 134
47.576500 71.578003 -0.141478 202 231 134
47.727699 71.475098 -0.142747 202 231 134
47.642799 71.425301 -0.143035 202 231 134
47.682598 71.435097 -0.143000 202 231 134
45.809601 71.106697 -0.130571 202 231 134
46.733002 71.128098 -0.137784 202 231 134
44.801201 70.946899 -0.118293 202 231 134
43.832401 70.967796 -0.107162 202 231 134
43.780399 70.933701 -0.106385 202 231 134
43.750198 70.922798 -0.105047 202 231 134
48.301300 71.415398 -0.147463 202 231 134
47.925900 71.259697 -0.145951 202 231 134
47.895199 71.240898 -0.145589 202 231 134
48.092999 71.172501 -0.148082 202 231 134
48.598701 71.304497 -0.150436 202 231 134
47.967300 71.001404 -0.148504 202 231 134
48.708599 71.226196 -0.151667 202 231 134
49.105499 71.213303 -0.154570 202 231 134
49.112202 71.192703 -0.154423 202 231 134
49.163502 71.181900 -0.155379 202 231 134
49.625099 71.534698 -0.156339 202 231 134
49.161201 71.135696 -0.156306 202 231 134
48.041100 70.926804 -0.149577 202 231 134
47.487900 71.262100 -0.142337 202 231 134
49.544102 71.317902 -0.157214 202 231 134
49.966202 71.292397 -0.160203 202 231 134
49.889301 71.203102 -0.159607 202 231 134
53.539501 74.822502 -0.141143 202 231 134
50.922501 71.746597 -0.162538 202 231 134
51.512501 72.256699 -0.160930 202 231 134
53.405102 73.777496 -0.154192 202 231 134
53.249802 73.630096 -0.155065 202 231 134
53.086899 73.556801 -0.155228 202 231 134
53.039600 73.499901 -0.156425 202 231 134
53.532101 73.766403 -0.153296 202 231 134
53.171902 73.480003 -0.156244 202 231 134
53.549900 73.774101 -0.153489 202 231 134
53.249100 73.503998 -0.156825 202 231 134
52.958698 73.275002 -0.157951 202 231 134
52.257500 73.159203 -0.157227 202 231 134
52.377399 73.131500 -0.157140 202 231 134
52.630001 73.079498 -0.158360 202 231 134
53.439602 73.494904 -0.156138 202 231 134
53.939098 74.928497 -0.139646 202 231 134
53.778198 74.678200 -0.142627 202 231 134
52.849201 73.107498 -0.158195 202 231 134
52.021099 72.611000 -0.160312 202 231 134
52.158401 72.590401 -0.160140 202 231 134
52.667000 72.816902 -0.160247 202 231 134
53.194302 73.267197 -0.157764 202 231 134
53.469101 73.336197 -0.156845 202 231 134
53.727501 73.469002 -0.155711 202 231 134
53.849201 74.516403 -0.144019 202 231 134
53.883598 74.546799 -0.144335 202 231 134
54.157799 74.752800 -0.140442 202 231 134
54.217499 74.479500 -0.143917 202 231 134
53.977100 73.983398 -0.149895 202 231 134
54.207001 74.312698 -0.146742 202 231 134
51.921200 72.357300 -0.161623 202 231 134
52.291000 72.487099 -0.161455 202 231 134
52.454399 72.615799 -0.161622 202 231 134
52.447601 72.565804 -0.160965 202 231 134
50.563301 71.646202 -0.160701 202 231 134
51.162201 71.676598 -0.162818 202 231 134
50.831799 71.628899 -0.161591 202 231 134
54.280998 74.875999 -0.139003 202 231 134
55.171101 75.502098 -0.129556 202 231 134
54.999901 75.114899 -0.134950 202 231 134
54.771900 75.039101 -0.136716 202 231 134
55.410301 75.472298 -0.128412 202 231 134
55.323002 75.190300 -0.132551 202 231 134
55.312099 75.138496 -0.133366 202 231 134
55.687302 75.804001 -0.123157 202 231 134
55.862202 75.953499 -0.120145 202 231 134
59.788200 86.579399 3.759610 202 231 134
59.839298 86.674599 3.909540 202 231 134
59.901100 86.475502 3.596830 202 231 134
59.392200 85.130600 1.941600 202 231 134
59.587200 84.643600 1.454050 202 231 134
59.727001 84.854698 1.668600 202 231 134
59.365002 85.239899 2.049960 202 231 134
59.369701 85.375298 2.186300 202 231 134
59.456200 85.174500 1.986590 202 231 134
59.737999 85.245399 2.059760 202 231 134
59.779800 85.401802 2.218040 202 231 134
59.460400 83.065697 0.395812 202 231 134
59.549900 83.109802 0.423933 202 231 134
59.526299 83.179001 0.465451 202 231 134
59.602600 83.343697 0.567329 202 231 134
59.907398 83.252800 0.511624 202 231 134
59.969898 83.147400 0.446957 202 231 134
60.089500 83.053299 0.388815 202 231 134
60.070099 83.283401 0.531578 202 231 134
59.665798 82.019798 0.119409 202 231 134
60.015099 83.394501 0.599098 202 231 134
59.410900 81.575600 0.034493 202 231 134
59.751598 84.129997 1.051920 202 231 134
59.801399 84.307503 1.162060 202 231 134
59.673302 84.516602 1.328180 202 231 134
59.777802 83.963600 0.951021 202 231 134
60.047001 83.555199 0.698820 202 231 134
60.104698 83.658501 0.763222 202 231 134
60.116402 83.529198 0.683093 202 231 134
60.119999 83.455002 0.636947 202 231 134
60.193802 83.815598 0.858934 202 231 134
59.871201 84.989304 1.804300 202 231 134
59.969799 84.965103 1.782140 202 231 134
59.889801 85.586700 2.405440 202 231 134
59.912300 85.666901 2.486780 202 231 134
59.866299 86.005203 2.856350 202 231 134
59.858799 86.030602 2.895690 202 231 134
57.779099 77.594803 -0.090949 202 231 134
57.799301 77.957603 -0.085943 202 231 134
57.779202 77.381401 -0.093907 202 231 134
55.961899 75.744797 -0.122750 202 231 134
56.011101 75.703796 -0.123896 202 231 134
55.779099 75.617699 -0.125910 202 231 134
56.263100 75.772003 -0.122588 202 231 134
56.375599 75.844101 -0.121838 202 231 134
56.688900 76.240097 -0.114058 202 231 134
55.800999 75.414001 -0.127956 202 231 134
54.649101 74.645401 -0.141894 202 231 134
54.769901 74.707603 -0.140057 202 231 134
54.354599 74.554398 -0.143284 202 231 134
55.214100 74.864502 -0.137045 202 231 134
59.980701 86.232597 3.215820 202 231 134
60.091099 86.119003 3.039220 202 231 134
60.144501 86.100899 3.011250 202 231 134
60.047298 85.586098 2.406720 202 231 134
60.188099 86.094299 3.000770 202 231 134
58.925800 87.099403 5.293040 202 231 134
60.082600 86.391701 3.468440 202 231 134
60.172699 86.796600 4.110030 202 231 134
60.284698 86.750801 4.040170 202 231 134
40.308300 87.217300 14.089700 202 231 134
40.279800 87.217400 14.093200 202 231 134
40.591499 87.223396 14.224000 202 231 134
41.127102 87.235703 14.496300 202 231 134
42.428398 87.259102 14.322300 202 231 134
41.806099 87.247597 14.425800 202 231 134
41.744099 87.249001 14.714300 202 231 134
42.449699 87.261101 14.628300 202 231 134
43.344002 87.262703 13.248100 202 231 134
41.502602 87.245003 14.693700 202 231 134
41.101601 87.238503 14.750900 202 231 134
41.332802 87.243301 14.813000 202 231 134
41.431999 87.245499 14.852500 202 231 134
40.577400 87.224701 14.294600 202 231 134
40.601501 87.226799 14.458900 202 231 134
40.704300 87.229897 14.648200 202 231 134
40.488400 87.222603 14.220700 202 231 134
40.652000 87.228699 14.616600 202 231 134
41.923100 87.256203 15.091600 202 231 134
42.212299 87.261200 15.079500 202 231 134
40.107201 87.214897 14.238500 202 231 134
39.764099 87.206497 14.047600 202 231 134
40.502201 87.224899 14.507500 202 231 134
39.590900 87.203499 14.077800 202 231 134
39.611900 87.205200 14.230300 202 231 134
39.560501 87.205002 14.325600 202 231 134
39.644001 87.207603 14.413700 202 231 134
38.475800 87.016800 13.482500 202 231 134
38.394501 87.002998 13.629800 202 231 134
38.107498 86.947800 13.523600 202 231 134
38.131401 86.953499 13.749800 202 231 134
37.995899 86.927803 13.694200 202 231 134
39.408199 87.197701 14.266900 202 231 134
39.167198 87.151398 14.145500 202 231 134
39.032700 87.126503 14.106400 202 231 134
39.061401 87.132500 14.206500 202 231 134
38.884499 87.098396 14.049100 202 231 134
38.493900 87.023300 13.984000 202 231 134
38.823700 87.086601 14.105200 202 231 134
38.385799 87.005096 14.088300 202 231 134
45.949799 70.946404 -0.131861 202 231 134
46.580502 70.843803 -0.138501 202 231 134
47.103100 71.021896 -0.141534 202 231 134
46.773201 70.994102 -0.139209 202 231 134
46.562000 70.756401 -0.138938 202 231 134
46.375000 70.707703 -0.137519 202 231 134
45.393398 70.881699 -0.127084 202 231 134
45.100201 70.808800 -0.123236 202 231 134
45.448002 70.597900 -0.128834 202 231 134
45.747898 70.714203 -0.132173 202 231 134
46.345299 70.601303 -0.137804 202 231 134
43.316399 70.966301 -0.099043 202 231 134
43.885101 70.616203 -0.108872 202 231 134
44.423599 70.387497 -0.116081 202 231 134
44.394299 70.283997 -0.115216 202 231 134
44.020000 70.442497 -0.110362 202 231 134
43.752998 70.521301 -0.106063 202 231 134
44.150799 70.278099 -0.112388 202 231 134
42.246899 71.042702 -0.082287 202 231 134
41.821301 71.155701 -0.073968 202 231 134
42.591599 70.785103 -0.090241 202 231 134
42.306099 70.897301 -0.084420 202 231 134
42.348499 70.823097 -0.084668 202 231 134
42.590099 70.585503 -0.089911 202 231 134
42.658901 70.581902 -0.091828 202 231 134
43.151299 70.608002 -0.097470 202 231 134
58.246201 79.318100 -0.056651 202 231 134
58.258400 79.432297 -0.053656 202 231 134
58.380001 79.716400 -0.047858 202 231 134
58.540699 79.691299 -0.047941 202 231 134
58.545700 79.667297 -0.048793 202 231 134
57.977299 78.760696 -0.070702 202 231 134
57.996799 78.762901 -0.069685 202 231 134
58.479801 79.357803 -0.054478 202 231 134
59.050598 80.157799 -0.034396 202 231 134
59.292400 81.000702 -0.016989 202 231 134
59.480301 81.360901 -0.004726 202 231 134
59.334900 80.824303 -0.019893 202 231 134
59.372601 80.586700 -0.024084 202 231 134
58.403801 79.009499 -0.060756 202 231 134
58.184898 78.663803 -0.069625 202 231 134
58.436901 78.867302 -0.064076 202 231 134
57.919800 78.320503 -0.079419 202 231 134
57.927898 78.066299 -0.082829 202 231 134
58.221298 77.849800 -0.084101 202 231 134
57.505402 76.775803 -0.103856 202 231 134
57.821201 77.048103 -0.098531 202 231 134
57.592999 76.708702 -0.104446 202 231 134
58.068001 77.349297 -0.092396 202 231 134
57.230499 76.474998 -0.109214 202 231 134
58.214100 77.543503 -0.087627 202 231 134
58.283199 77.527901 -0.087517 202 231 134
58.337299 77.565903 -0.087016 202 231 134
58.137699 77.220398 -0.093827 202 231 134
58.412601 77.695900 -0.083953 202 231 134
57.161400 76.423103 -0.110280 202 231 134
57.264702 76.422600 -0.108910 202 231 134
56.700699 75.852203 -0.118663 202 231 134
56.487000 75.541702 -0.124538 202 231 134
56.411201 75.522598 -0.125193 202 231 134
57.449501 76.473602 -0.107002 202 231 134
57.433701 76.432602 -0.107916 202 231 134
57.546700 76.414299 -0.107106 202 231 134
57.366501 76.189201 -0.111943 202 231 134
57.615700 76.402702 -0.107059 202 231 134
57.408798 76.152702 -0.111998 202 231 134
57.744301 76.542099 -0.105400 202 231 134
59.645500 81.810997 0.079479 202 231 134
59.730499 81.802200 0.078278 202 231 134
59.730099 81.573196 0.035514 202 231 134
59.855301 81.784798 0.074794 202 231 134
59.716099 81.430901 0.008783 202 231 134
60.043301 82.124901 0.140264 202 231 134
60.013901 82.554604 0.220811 202 231 134
59.642799 81.353500 -0.006726 202 231 134
59.751301 81.116402 -0.012394 202 231 134
59.044498 80.114601 -0.035200 202 231 134
59.621899 80.722504 -0.019951 202 231 134
59.296200 80.349403 -0.030096 202 231 134
59.518700 80.445503 -0.026492 202 231 134
59.452999 80.341400 -0.029437 202 231 134
59.180698 80.210800 -0.033106 202 231 134
59.304901 80.094200 -0.035414 202 231 134
59.833801 80.612297 -0.021229 202 231 134
51.566799 71.736504 -0.164484 202 231 134
51.121399 71.479202 -0.163982 202 231 134
52.172901 72.229202 -0.162672 202 231 134
52.202702 72.203300 -0.162936 202 231 134
52.598099 72.529900 -0.162017 202 231 134
51.900299 72.153503 -0.163166 202 231 134
50.232700 71.320297 -0.161379 202 231 134
49.477600 71.112198 -0.158050 202 231 134
49.226700 70.957397 -0.156490 202 231 134
49.400902 70.945801 -0.158456 202 231 134
49.239601 70.823997 -0.157511 202 231 134
49.059101 70.816299 -0.157198 202 231 134
50.983601 71.439499 -0.163351 202 231 134
51.834099 71.935997 -0.164617 202 231 134
41.660702 71.133003 -0.070400 202 231 134
42.027901 70.917000 -0.078611 202 231 134
41.591801 71.077003 -0.069410 202 231 134
41.694599 70.939201 -0.071980 202 231 134
41.576199 70.983902 -0.069707 202 231 134
42.161499 70.653900 -0.081911 202 231 134
40.770500 71.076103 -0.052912 202 231 134
40.445702 71.322998 -0.044472 202 231 134
40.439999 71.284500 -0.045759 202 231 134
40.348499 71.344498 -0.042815 202 231 134
40.787998 71.036598 -0.053396 202 231 134
40.259499 71.223701 -0.041785 202 231 134
40.764599 70.968399 -0.053261 202 231 134
40.618301 70.961998 -0.051109 202 231 134
39.764900 71.473701 -0.029929 202 231 134
40.062000 71.003799 -0.039603 202 231 134
40.501099 70.779701 -0.049132 202 231 134
41.399899 70.691399 -0.067298 202 231 134
41.409199 70.552902 -0.068877 202 231 134
41.574299 70.534302 -0.072067 202 231 134
41.990299 70.605904 -0.079055 202 231 134
42.304401 70.572502 -0.085525 202 231 134
38.242802 71.898201 0.201814 202 231 134
39.109402 71.801598 0.038995 202 231 134
39.164200 71.501999 0.026703 202 231 134
38.911701 71.773399 0.074899 202 231 134
39.785400 71.209801 -0.031578 202 231 134
39.529400 71.281700 -0.026043 202 231 134
39.477600 71.232803 -0.024285 202 231 134
39.679100 71.062401 -0.029868 202 231 134
38.588001 71.506500 0.133534 202 231 134
38.227600 71.632698 0.201233 202 231 134
38.077801 71.695198 0.230013 202 231 134
38.920399 71.302002 0.069406 202 231 134
45.008499 70.419197 -0.123763 202 231 134
45.527699 70.436203 -0.131147 202 231 134
44.998901 70.266602 -0.123305 202 231 134
45.526001 70.421097 -0.130594 202 231 134
47.254501 70.957802 -0.143698 202 231 134
47.385799 71.005997 -0.143817 202 231 134
47.619400 71.021896 -0.144936 202 231 134
47.608398 70.943199 -0.146164 202 231 134
45.931000 70.542000 -0.133615 202 231 134
45.987499 70.459900 -0.135188 202 231 134
46.949402 70.579803 -0.143238 202 231 134
46.746201 70.524300 -0.141100 202 231 134
46.471699 70.564201 -0.139220 202 231 134
46.542702 70.472099 -0.139564 202 231 134
46.530899 70.457397 -0.139535 202 231 134
44.833401 70.192001 -0.121752 202 231 134
43.508801 70.355598 -0.104215 202 231 134
48.133099 70.784103 -0.149953 202 231 134
47.852798 70.704697 -0.149571 202 231 134
47.846001 70.685303 -0.149006 202 231 134
48.128799 70.674797 -0.151721 202 231 134
47.483200 70.650703 -0.146661 202 231 134
47.534698 70.576401 -0.147751 202 231 134
49.105099 70.699303 -0.157583 202 231 134
49.163101 70.692200 -0.158521 202 231 134
49.301701 70.714897 -0.159396 202 231 134
49.503101 70.798897 -0.159037 202 231 134
49.853500 71.044601 -0.160210 202 231 134
49.951302 71.028801 -0.160971 202 231 134
48.384201 70.460403 -0.153919 202 231 134
49.714500 70.848503 -0.161265 202 231 134
50.045399 70.913597 -0.161907 202 231 134
50.293098 70.872902 -0.164492 202 231 134
49.942799 70.675903 -0.163555 202 231 134
50.204300 70.690804 -0.164473 202 231 134
51.335800 71.404602 -0.165407 202 231 134
50.946701 71.157204 -0.165118 202 231 134
51.248901 71.210098 -0.165541 202 231 134
50.745602 71.105400 -0.165037 202 231 134
51.567699 71.514603 -0.165067 202 231 134
51.104099 71.017700 -0.166216 202 231 134
51.477798 71.239700 -0.165956 202 231 134
51.840698 71.863197 -0.164734 202 231 134
51.965000 72.014297 -0.164246 202 231 134
52.068501 72.037498 -0.164124 202 231 134
52.104500 72.123802 -0.163975 202 231 134
51.652699 71.502296 -0.165275 202 231 134
53.834000 73.620598 -0.155060 202 231 134
53.966400 73.747299 -0.153522 202 231 134
53.979099 73.899498 -0.151535 202 231 134
53.970901 73.548203 -0.155000 202 231 134
53.607101 73.195602 -0.157743 202 231 134
54.086300 73.803596 -0.153113 202 231 134
53.996601 73.455704 -0.155594 202 231 134
53.615002 73.063301 -0.158975 202 231 134
54.132000 73.658600 -0.154751 202 231 134
53.219398 72.706596 -0.161622 202 231 134
53.112000 72.636299 -0.162143 202 231 134
53.380600 72.758698 -0.161441 202 231 134
52.976398 72.569901 -0.162774 202 231 134
52.991501 72.513100 -0.162773 202 231 134
53.910599 73.203400 -0.157021 202 231 134
52.248100 71.977501 -0.163920 202 231 134
52.584900 72.096703 -0.164375 202 231 134
52.810299 72.258499 -0.163374 202 231 134
53.120602 72.394897 -0.163121 202 231 134
53.903599 72.984497 -0.158929 202 231 134
54.177299 73.775497 -0.152688 202 231 134
54.410301 74.097603 -0.148597 202 231 134
54.427200 74.054802 -0.148366 202 231 134
54.396801 73.712898 -0.152800 202 231 134
51.527302 71.194901 -0.166687 202 231 134
51.716999 71.291397 -0.166876 202 231 134
51.799400 71.376602 -0.165816 202 231 134
55.530300 74.936302 -0.135170 202 231 134
55.157398 74.578697 -0.140686 202 231 134
55.629902 74.986198 -0.134093 202 231 134
55.503101 74.611504 -0.138350 202 231 134
55.719398 74.938400 -0.134759 202 231 134
55.761902 74.746696 -0.136864 202 231 134
55.784500 74.670601 -0.136770 202 231 134
56.294998 75.471100 -0.126998 202 231 134
60.410599 86.346802 3.401070 202 231 134
60.103802 86.930298 4.358890 202 231 134
60.338699 86.282700 3.300110 202 231 134
60.565102 86.623497 3.842680 202 231 134
60.279598 86.154503 3.095500 202 231 134
60.338600 86.126297 3.053780 202 231 134
60.477699 86.170998 3.125760 202 231 134
60.148300 84.464897 1.280450 202 231 134
60.256199 84.789001 1.607450 202 231 134
60.374599 84.857498 1.678520 202 231 134
60.406700 84.830704 1.651590 202 231 134
60.335701 84.617897 1.437050 202 231 134
60.406898 85.291603 2.115020 202 231 134
60.229801 85.636497 2.460690 202 231 134
60.338501 85.622398 2.447720 202 231 134
60.177502 83.285896 0.532363 202 231 134
60.183498 83.295303 0.538643 202 231 134
60.244099 83.140099 0.443107 202 231 134
60.271500 83.186798 0.472169 202 231 134
60.298698 83.171600 0.461813 202 231 134
60.371899 82.929398 0.312542 202 231 134
60.426899 82.604897 0.230207 202 231 134
60.459202 82.618103 0.232396 202 231 134
60.133301 81.629601 0.047454 202 231 134
60.354301 82.041298 0.124380 202 231 134
60.304100 81.692802 0.059208 202 231 134
60.382900 82.086304 0.133456 202 231 134
60.252800 83.951103 0.943385 202 231 134
60.396500 84.226601 1.114710 202 231 134
60.522099 84.232002 1.118630 202 231 134
60.606800 83.865097 0.891018 202 231 134
60.717201 83.417000 0.614058 202 231 134
60.622200 84.084297 1.027590 202 231 134
60.650600 84.246696 1.128950 202 231 134
60.904800 83.789703 0.845470 202 231 134
60.538101 85.050400 1.872780 202 231 134
60.528099 84.778397 1.599900 202 231 134
60.595299 84.843597 1.665880 202 231 134
60.654999 84.866600 1.689230 202 231 134
60.503399 85.726501 2.553370 202 231 134
60.477901 85.873596 2.701690 202 231 134
60.235500 86.028198 2.898590 202 231 134
60.363899 86.000801 2.856940 202 231 134
60.322399 86.026398 2.895210 202 231 134
60.546200 85.995102 2.849030 202 231 134
58.020901 77.003700 -0.096932 202 231 134
58.429100 77.609100 -0.084775 202 231 134
58.441299 77.726898 -0.083234 202 231 134
58.017899 76.723198 -0.100562 202 231 134
56.230000 75.232903 -0.129146 202 231 134
56.502300 75.441498 -0.126072 202 231 134
56.383801 75.228699 -0.129423 202 231 134
56.621799 75.377899 -0.125916 202 231 134
56.465302 75.181000 -0.129081 202 231 134
56.825802 75.547798 -0.122394 202 231 134
57.227901 75.809303 -0.116559 202 231 134
56.164001 74.932999 -0.133705 202 231 134
55.170700 74.268700 -0.144094 202 231 134
55.271900 74.385696 -0.142869 202 231 134
54.968899 73.997200 -0.148197 202 231 134
55.376999 74.389999 -0.141937 202 231 134
55.502499 74.219299 -0.143578 202 231 134
60.697201 86.058899 2.953090 202 231 134
60.762798 86.040199 2.924230 202 231 134
60.775101 86.241203 3.241460 202 231 134
60.808399 85.595596 2.425230 202 231 134
60.806801 85.536400 2.365180 202 231 134
60.666698 86.730499 4.014700 202 231 134
60.608101 86.939697 4.443550 202 231 134
60.978600 86.832703 4.183330 202 231 134
60.952702 86.564697 3.758590 202 231 134
61.026402 86.511902 3.674070 202 231 134
40.355801 87.222702 14.630700 202 231 134
40.219299 87.220001 14.662200 202 231 134
40.318001 87.222702 14.714400 202 231 134
40.042801 87.217003 14.670400 202 231 134
40.544601 87.227600 14.710000 202 231 134
40.629002 87.228203 14.718600 202 231 134
41.249100 87.242203 14.913000 202 231 134
40.765499 87.232697 14.841700 202 231 134
40.816399 87.233803 14.911900 202 231 134
41.357899 87.245399 15.066900 202 231 134
41.555698 87.249199 15.073100 202 231 134
41.484100 87.247498 15.070100 202 231 134
41.547501 87.249603 15.251400 202 231 134
41.851101 87.256897 15.410100 202 231 134
41.296902 87.245796 15.279200 202 231 134
42.405201 87.265099 15.225600 202 231 134
42.454899 87.266502 15.302100 202 231 134
42.968700 87.273201 15.086900 202 231 134
41.574100 87.251999 15.458200 202 231 134
41.374298 87.248497 15.531900 202 231 134
41.361801 87.248398 15.535600 202 231 134
40.452000 87.228104 15.092200 202 231 134
40.271500 87.225304 15.039200 202 231 134
42.291302 87.264503 15.517400 202 231 134
42.498299 87.268303 15.541700 202 231 134
42.692299 87.270897 15.434900 202 231 134
42.840801 87.272301 15.344100 202 231 134
39.239300 87.168404 14.444500 202 231 134
39.142399 87.149803 14.456500 202 231 134
38.990799 87.121300 14.387500 202 231 134
39.645901 87.211304 14.787300 202 231 134
39.676701 87.211700 14.788100 202 231 134
39.102699 87.144096 14.628600 202 231 134
39.619999 87.212303 14.980800 202 231 134
38.237400 86.977699 14.217700 202 231 134
38.691200 87.063400 14.201500 202 231 134
38.922901 87.110199 14.591500 202 231 134
38.804699 87.084396 14.266000 202 231 134
38.640099 87.054901 14.368800 202 231 134
38.833401 87.094101 14.754600 202 231 134
38.171299 86.967796 14.437100 202 231 134
38.215500 86.977097 14.655100 202 231 134
46.281898 70.474503 -0.137614 202 231 134
46.301899 70.348801 -0.138468 202 231 134
47.002701 70.460602 -0.144436 202 231 134
46.794102 70.305702 -0.142198 202 231 134
47.007801 70.388603 -0.144366 202 231 134
46.547798 70.214996 -0.139855 202 231 134
46.802898 70.237701 -0.141976 202 231 134
44.857399 70.129501 -0.122532 202 231 134
45.349899 70.021896 -0.128394 202 231 134
45.660599 70.015297 -0.131930 202 231 134
45.998699 70.076698 -0.136035 202 231 134
43.721500 70.038002 -0.107122 202 231 134
44.049801 69.979401 -0.111588 202 231 134
43.678398 69.849503 -0.106653 202 231 134
43.797901 69.826103 -0.108411 202 231 134
44.311298 69.521004 -0.115508 202 231 134
43.835098 69.755600 -0.108793 202 231 134
43.727501 69.832001 -0.107300 202 231 134
44.278000 69.481201 -0.115453 202 231 134
43.367298 70.004501 -0.102390 202 231 134
43.590199 69.756798 -0.105345 202 231 134
41.985802 70.576103 -0.079307 202 231 134
42.488701 70.225899 -0.089258 202 231 134
42.692799 70.176598 -0.092308 202 231 134
42.743000 70.181000 -0.092656 202 231 134
42.388901 70.183899 -0.088354 202 231 134
42.034401 70.420197 -0.080768 202 231 134
42.133900 70.285599 -0.082892 202 231 134
42.631699 69.928001 -0.092505 202 231 134
43.064602 70.025497 -0.097761 202 231 134
43.174400 70.086700 -0.099275 202 231 134
58.975201 79.277901 -0.051681 202 231 134
58.686001 78.535896 -0.068071 202 231 134
58.972401 78.769203 -0.061405 202 231 134
59.277901 79.417297 -0.047310 202 231 134
59.445099 79.765701 -0.040418 202 231 134
59.619598 79.996803 -0.034290 202 231 134
59.400799 79.647400 -0.042482 202 231 134
59.679100 80.189201 -0.031021 202 231 134
59.778301 79.991096 -0.033279 202 231 134
58.943901 78.250900 -0.071274 202 231 134
59.078499 78.368500 -0.068835 202 231 134
58.566700 77.563103 -0.084031 202 231 134
58.596699 77.404099 -0.086681 202 231 134
58.817101 78.094902 -0.074838 202 231 134
58.898800 77.673698 -0.080196 202 231 134
58.476601 77.175301 -0.090486 202 231 134
57.644501 76.395798 -0.106837 202 231 134
57.750000 76.381401 -0.106747 202 231 134
57.788799 76.265602 -0.107755 202 231 134
58.291100 76.832901 -0.096938 202 231 134
58.378799 76.787498 -0.097580 202 231 134
58.396599 76.719002 -0.097908 202 231 134
57.521599 75.817802 -0.114754 202 231 134
58.643501 76.966301 -0.092485 202 231 134
59.090099 77.480103 -0.081538 202 231 134
59.085098 77.930603 -0.075294 202 231 134
57.020699 75.399498 -0.122958 202 231 134
56.810501 75.210899 -0.126828 202 231 134
57.150700 75.296700 -0.123379 202 231 134
56.485901 75.121399 -0.130041 202 231 134
56.846001 75.059898 -0.128016 202 231 134
57.963799 76.179100 -0.107541 202 231 134
58.084400 76.177299 -0.106973 202 231 134
57.844799 75.844299 -0.113277 202 231 134
57.492802 75.649498 -0.117153 202 231 134
57.557301 75.668098 -0.116758 202 231 134
57.856701 75.737602 -0.114649 202 231 134
60.236698 81.456100 0.013837 202 231 134
60.141800 81.079201 -0.010930 202 231 134
60.467800 81.587196 0.039568 202 231 134
60.515701 82.170197 0.148732 202 231 134
60.543201 82.312599 0.175092 202 231 134
60.577801 82.175102 0.149906 202 231 134
60.663101 82.105103 0.136922 202 231 134
60.695301 82.284500 0.170115 202 231 134
60.166901 80.614197 -0.018603 202 231 134
59.618900 79.637802 -0.040827 202 231 134
59.681000 79.636703 -0.041540 202 231 134
60.485600 80.573303 -0.018348 202 231 134
60.602001 80.347298 -0.021721 202 231 134
51.091301 70.868301 -0.166498 202 231 134
50.969501 70.779503 -0.166330 202 231 134
52.412201 71.777199 -0.165981 202 231 134
52.371101 71.584503 -0.166850 202 231 134
53.094299 72.265701 -0.163936 202 231 134
50.469002 70.634499 -0.165487 202 231 134
49.115700 70.553001 -0.157834 202 231 134
49.415001 70.525497 -0.159871 202 231 134
49.108101 70.475800 -0.158317 202 231 134
49.379101 70.418098 -0.160080 202 231 134
49.126301 70.345299 -0.159725 202 231 134
49.027100 70.276398 -0.159428 202 231 134
41.180599 70.475601 -0.064301 202 231 134
41.732800 70.191704 -0.076435 202 231 134
40.828098 70.452797 -0.058128 202 231 134
40.942001 70.419800 -0.059739 202 231 134
40.247002 70.632500 -0.045083 202 231 134
40.234699 70.624397 -0.045173 202 231 134
40.043900 70.711304 -0.039650 202 231 134
40.496101 70.434402 -0.050707 202 231 134
39.696999 70.849197 -0.032410 202 231 134
39.139000 71.172897 0.029334 202 231 134
39.807701 70.750298 -0.034505 202 231 134
39.870602 70.580704 -0.036881 202 231 134
39.691002 70.515800 -0.033620 202 231 134
40.219299 70.245399 -0.047121 202 231 134
41.235500 70.264297 -0.065657 202 231 134
41.504799 70.235901 -0.071716 202 231 134
41.298500 70.205803 -0.067605 202 231 134
41.102200 70.115501 -0.064529 202 231 134
41.522701 69.943703 -0.073041 202 231 134
41.036301 70.056198 -0.063616 202 231 134
41.506500 69.910202 -0.072721 202 231 134
37.993698 71.533997 0.244667 202 231 134
38.181000 71.385597 0.208140 202 231 134
37.837799 71.489799 0.295550 202 231 134
37.784302 71.522797 0.328350 202 231 134
38.307201 71.242798 0.182459 202 231 134
38.096100 71.252998 0.221896 202 231 134
38.020199 71.233803 0.235989 202 231 134
38.780499 71.178001 0.094804 202 231 134
39.110802 70.895699 0.032113 202 231 134
38.933701 70.883797 0.064800 202 231 134
38.739498 70.956001 0.100571 202 231 134
39.280602 70.784500 0.000330 202 231 134
39.065800 70.748100 0.039832 202 231 134
39.139099 70.669296 0.026267 202 231 134
38.341301 71.174004 0.175930 202 231 134
38.382801 71.120598 0.168408 202 231 134
38.325199 71.109901 0.178876 202 231 134
38.555698 71.001801 0.134914 202 231 134
38.620701 70.981903 0.122304 202 231 134
38.722500 70.921799 0.104170 202 231 134
38.784801 70.871101 0.091344 202 231 134
38.881699 70.773903 0.073685 202 231 134
38.527901 70.886902 0.139297 202 231 134
45.150299 69.705399 -0.126739 202 231 134
45.080601 69.692200 -0.125050 202 231 134
45.352699 69.719597 -0.129403 202 231 134
45.029900 69.634697 -0.125058 202 231 134
46.174702 69.950897 -0.137764 202 231 134
46.240501 69.946503 -0.137431 202 231 134
47.032101 70.178200 -0.145080 202 231 134
46.536400 69.943001 -0.140340 202 231 134
48.458000 70.379402 -0.154813 202 231 134
48.494099 70.410500 -0.155028 202 231 134
48.235298 70.254097 -0.153700 202 231 134
48.426899 70.319702 -0.154364 202 231 134
47.692799 70.277298 -0.150043 202 231 134
48.610600 70.227501 -0.156955 202 231 134
47.465698 70.016098 -0.148318 202 231 134
47.683899 69.994698 -0.151082 202 231 134
48.939301 70.223297 -0.158708 202 231 134
50.086700 70.394501 -0.164862 202 231 134
50.199200 70.415604 -0.165113 202 231 134
50.187599 70.386902 -0.166267 202 231 134
49.940601 70.313599 -0.164288 202 231 134
48.703400 70.056801 -0.158438 202 231 134
48.715099 70.017998 -0.158393 202 231 134
48.557701 69.829903 -0.157728 202 231 134
48.554901 69.762199 -0.158121 202 231 134
50.393002 70.408997 -0.165884 202 231 134
50.739601 70.363503 -0.168021 202 231 134
50.234699 70.187103 -0.166668 202 231 134
49.777500 70.222099 -0.164214 202 231 134
50.062000 70.177101 -0.165034 202 231 134
49.950401 70.112701 -0.165594 202 231 134
50.204899 70.138702 -0.167242 202 231 134
51.684898 70.968803 -0.168631 202 231 134
51.914398 71.094704 -0.167408 202 231 134
51.086601 70.647003 -0.166939 202 231 134
51.110199 70.513199 -0.168020 202 231 134
51.196400 70.386299 -0.168491 202 231 134
51.706902 70.764603 -0.168472 202 231 134
50.791401 70.360802 -0.168049 202 231 134
51.977299 70.855202 -0.169593 202 231 134
52.064400 70.986298 -0.167948 202 231 134
52.397701 71.473999 -0.166618 202 231 134
52.235001 71.131699 -0.168793 202 231 134
54.480999 73.267799 -0.156049 202 231 134
53.775398 72.827904 -0.159797 202 231 134
53.731098 72.761597 -0.160197 202 231 134
54.572601 73.306900 -0.155441 202 231 134
53.794102 72.550201 -0.161531 202 231 134
54.207500 72.893997 -0.159748 202 231 134
53.339298 72.488602 -0.163190 202 231 134
53.385799 72.313202 -0.164626 202 231 134
53.359402 72.295303 -0.164219 202 231 134
53.729099 72.291100 -0.164446 202 231 134
54.248001 72.830803 -0.159758 202 231 134
52.516899 71.494003 -0.167648 202 231 134
52.843102 71.599098 -0.167709 202 231 134
53.247501 71.748199 -0.167180 202 231 134
53.756001 72.195198 -0.163983 202 231 134
54.465199 72.812202 -0.160154 202 231 134
54.901001 73.648598 -0.153079 202 231 134
55.014599 73.643402 -0.152212 202 231 134
54.740398 73.242897 -0.156481 202 231 134
54.875099 73.338203 -0.155542 202 231 134
52.464699 71.317101 -0.168350 202 231 134
56.063499 74.574097 -0.137554 202 231 134
56.053902 74.559502 -0.137808 202 231 134
55.213501 74.105103 -0.146440 202 231 134
55.706200 74.202499 -0.142822 202 231 134
56.270100 74.754700 -0.134377 202 231 134
55.784599 74.156998 -0.143314 202 231 134
55.530201 73.972801 -0.146752 202 231 134
56.085201 74.325302 -0.140423 202 231 134
56.248402 74.655296 -0.135691 202 231 134
56.311199 74.466499 -0.137895 202 231 134
56.235199 74.339798 -0.139399 202 231 134
56.397701 74.692398 -0.134941 202 231 134
60.811199 86.209503 3.192890 202 231 134
60.849602 86.187897 3.158350 202 231 134
61.183102 86.563103 3.759200 202 231 134
61.277100 86.577400 3.783600 202 231 134
61.273602 86.721901 4.011610 202 231 134
61.351601 86.524101 3.700540 202 231 134
60.958302 86.127899 3.065050 202 231 134
60.583500 84.606796 1.427330 202 231 134
60.716099 84.394897 1.220000 202 231 134
60.732899 84.927399 1.750490 202 231 134
60.903500 84.823601 1.647690 202 231 134
60.938000 84.649498 1.472940 202 231 134
60.891800 85.241600 2.068810 202 231 134
61.131100 84.588699 1.414290 202 231 134
61.071701 85.455002 2.285610 202 231 134
61.091900 85.596199 2.427900 202 231 134
60.853298 83.274300 0.525936 202 231 134
60.818802 83.057701 0.391808 202 231 134
60.910599 82.445602 0.200640 202 231 134
60.878799 82.339104 0.179997 202 231 134
60.687000 81.488297 0.021395 202 231 134
60.667198 81.406303 0.005295 202 231 134
60.525501 81.153000 -0.010227 202 231 134
60.592098 81.139099 -0.009671 202 231 134
61.018700 81.892303 0.097409 202 231 134
61.023998 83.857597 0.889365 202 231 134
61.240002 84.068901 1.022360 202 231 134
61.278099 84.052002 1.012380 202 231 134
61.105900 83.556999 0.703402 202 231 134
61.414398 83.396896 0.606600 202 231 134
61.296902 84.397598 1.226490 202 231 134
61.399101 84.073502 1.026920 202 231 134
61.380402 84.318901 1.177180 202 231 134
61.284100 84.556801 1.383130 202 231 134
61.421600 83.472099 0.653017 202 231 134
61.543800 83.706703 0.799865 202 231 134
61.563000 83.960800 0.958365 202 231 134
61.403500 84.248299 1.135080 202 231 134
61.355000 84.650703 1.479510 202 231 134
61.087601 85.871696 2.705210 202 231 134
61.108398 85.524696 2.357520 202 231 134
58.511101 76.577103 -0.099144 202 231 134
58.854198 77.052399 -0.089019 202 231 134
59.058498 77.300102 -0.084395 202 231 134
59.154499 77.618599 -0.078857 202 231 134
58.397202 76.364799 -0.102552 202 231 134
56.539902 74.781700 -0.133348 202 231 134
57.169601 75.256302 -0.123444 202 231 134
56.943600 74.896797 -0.128622 202 231 134
57.063499 74.961800 -0.127764 202 231 134
56.812500 74.724297 -0.131632 202 231 134
57.258999 75.259598 -0.123245 202 231 134
57.525700 75.225304 -0.121965 202 231 134
55.731300 73.771599 -0.148136 202 231 134
55.094501 73.503197 -0.152688 202 231 134
55.070702 73.465897 -0.153423 202 231 134
55.474998 73.444702 -0.151780 202 231 134
56.124298 74.008301 -0.143349 202 231 134
61.166199 85.900299 2.734860 202 231 134
61.170898 85.507500 2.339890 202 231 134
61.381500 85.598000 2.434150 202 231 134
61.365700 85.743797 2.580170 202 231 134
61.370998 85.831902 2.669520 202 231 134
61.379299 85.834900 2.672470 202 231 134
61.445202 85.435600 2.271330 202 231 134
61.027901 86.952003 4.547350 202 231 134
61.402302 86.721397 4.012800 202 231 134
61.371899 86.842796 4.205400 202 231 134
61.408001 86.702202 3.981990 202 231 134
61.273102 86.928200 4.421480 202 231 134
61.478401 86.810600 4.156190 202 231 134
61.349602 86.963097 4.624100 202 231 134
61.377800 86.940300 4.501010 202 231 134
61.617100 86.819298 4.172030 202 231 134
61.517502 86.583397 3.797210 202 231 134
61.526001 86.574402 3.781790 202 231 134
61.613499 86.584198 3.798760 202 231 134
61.671501 86.512001 3.686140 202 231 134
40.359699 87.228699 15.260500 202 231 134
39.813499 87.216599 15.053500 202 231 134
40.035801 87.221901 15.200700 202 231 134
40.503101 87.231400 15.283000 202 231 134
40.835400 87.238098 15.362800 202 231 134
40.563702 87.232597 15.363500 202 231 134
41.357300 87.250801 15.795600 202 231 134
41.459301 87.252602 15.968600 202 231 134
41.945801 87.261200 15.897000 202 231 134
41.609200 87.256104 16.045700 202 231 134
40.940498 87.243103 15.793700 202 231 134
40.667099 87.235497 15.548200 202 231 134
42.914101 87.275101 15.631400 202 231 134
43.051102 87.275703 15.333000 202 231 134
42.993599 87.277199 15.584300 202 231 134
43.093399 87.275703 15.168000 202 231 134
43.097599 87.275597 15.163400 202 231 134
43.126701 87.277901 15.376900 202 231 134
43.300301 87.278801 15.116500 202 231 134
43.464001 87.281303 15.166200 202 231 134
43.291901 87.280998 15.524300 202 231 134
41.319000 87.250198 15.978100 202 231 134
41.138302 87.248100 16.007401 202 231 134
41.148102 87.248802 16.120100 202 231 134
40.815800 87.240501 15.830400 202 231 134
40.551201 87.234001 15.577200 202 231 134
40.430698 87.232697 15.659100 202 231 134
40.168301 87.227203 15.631400 202 231 134
42.392502 87.271400 16.170700 202 231 134
42.374199 87.270897 16.176201 202 231 134
42.065300 87.265198 16.217899 202 231 134
42.491402 87.272903 16.246799 202 231 134
39.198502 87.165199 14.913700 202 231 134
39.293598 87.185600 15.229200 202 231 134
39.631001 87.216003 15.471400 202 231 134
38.895100 87.109100 15.086700 202 231 134
39.311798 87.191597 15.623200 202 231 134
38.935600 87.117401 15.256500 202 231 134
38.393799 87.012398 14.867500 202 231 134
38.381100 87.010300 14.903500 202 231 134
38.645901 87.063202 15.206200 202 231 134
38.548199 87.043800 15.158200 202 231 134
38.634399 87.061401 15.210900 202 231 134
38.045601 86.946899 14.887500 202 231 134
38.041901 86.946999 14.946700 202 231 134
46.314201 69.815804 -0.139024 202 231 134
46.601200 69.773201 -0.141945 202 231 134
47.044899 69.957298 -0.146245 202 231 134
47.155399 69.915901 -0.146793 202 231 134
45.140202 69.391602 -0.126789 202 231 134
45.582298 69.363800 -0.133027 202 231 134
45.298801 69.315300 -0.129551 202 231 134
45.791801 69.467598 -0.134259 202 231 134
45.723801 69.366203 -0.134188 202 231 134
46.021099 69.666298 -0.136875 202 231 134
43.592400 69.456299 -0.106168 202 231 134
43.695599 69.352600 -0.107382 202 231 134
43.232101 69.533302 -0.100866 202 231 134
43.176800 69.549797 -0.099843 202 231 134
43.892502 69.264999 -0.109734 202 231 134
43.216900 69.416397 -0.101013 202 231 134
44.545898 69.055199 -0.119184 202 231 134
43.959801 69.094398 -0.111579 202 231 134
44.660900 68.984703 -0.120541 202 231 134
44.713299 68.996597 -0.120839 202 231 134
44.693501 68.948997 -0.121535 202 231 134
44.645599 68.842697 -0.119984 202 231 134
44.517101 68.781403 -0.118370 202 231 134
43.835899 68.890999 -0.110146 202 231 134
44.609100 68.770798 -0.120459 202 231 134
43.092201 69.418900 -0.099051 202 231 134
42.844700 69.591202 -0.095073 202 231 134
43.315102 69.192200 -0.102082 202 231 134
43.029400 69.387001 -0.098056 202 231 134
43.322899 69.079903 -0.102847 202 231 134
42.257500 69.712402 -0.086390 202 231 134
42.038399 69.797501 -0.082546 202 231 134
42.602402 69.446297 -0.092252 202 231 134
42.687000 69.349998 -0.094138 202 231 134
42.511200 69.350098 -0.091752 202 231 134
42.247898 69.441200 -0.087144 202 231 134
59.532700 79.374901 -0.047047 202 231 134
59.639801 79.292900 -0.047760 202 231 134
59.326099 78.603699 -0.062279 202 231 134
59.206600 78.330704 -0.067281 202 231 134
59.714802 78.772400 -0.055220 202 231 134
59.799900 78.731102 -0.055321 202 231 134
59.710800 78.287300 -0.064675 202 231 134
59.641102 78.108704 -0.067269 202 231 134
59.799999 79.303200 -0.044681 202 231 134
59.927200 78.948196 -0.050958 202 231 134
60.280998 79.840103 -0.033946 202 231 134
59.488400 77.896301 -0.071117 202 231 134
59.486801 77.844200 -0.071823 202 231 134
59.794601 78.082703 -0.065753 202 231 134
58.821701 76.773804 -0.093767 202 231 134
59.457298 77.450500 -0.077801 202 231 134
59.308201 77.178497 -0.083634 202 231 134
58.608002 76.332802 -0.101040 202 231 134
58.797298 76.490799 -0.096637 202 231 134
58.859901 76.591301 -0.095492 202 231 134
58.889400 76.452599 -0.096920 202 231 134
59.013000 76.629898 -0.092859 202 231 134
58.706699 76.221497 -0.101502 202 231 134
57.739399 75.272797 -0.120659 202 231 134
58.108398 75.711601 -0.112879 202 231 134
59.244099 77.052902 -0.085608 202 231 134
59.282101 76.916000 -0.087569 202 231 134
59.359001 77.096199 -0.084128 202 231 134
59.448200 77.084099 -0.083301 202 231 134
59.451000 77.043900 -0.083173 202 231 134
59.661701 77.300697 -0.078514 202 231 134
59.412300 76.902702 -0.086662 202 231 134
57.199299 74.985703 -0.126719 202 231 134
57.434898 75.030296 -0.124885 202 231 134
57.715801 75.189400 -0.121030 202 231 134
57.201900 74.716904 -0.129896 202 231 134
56.878799 74.596298 -0.132962 202 231 134
58.393501 75.719002 -0.109569 202 231 134
58.241402 75.601303 -0.112629 202 231 134
57.964298 75.292297 -0.118856 202 231 134
57.977798 75.093697 -0.120335 202 231 134
58.513901 75.642601 -0.109945 202 231 134
60.694000 80.953003 -0.012192 202 231 134
60.767899 80.808601 -0.014990 202 231 134
61.034901 81.450699 0.015523 202 231 134
61.110001 81.797600 0.079750 202 231 134
61.111099 81.250298 -0.005796 202 231 134
61.213299 82.050903 0.128861 202 231 134
61.239399 82.270401 0.169946 202 231 134
61.239399 82.439903 0.200850 202 231 134
61.341499 82.480698 0.209455 202 231 134
61.020199 80.401100 -0.020032 202 231 134
60.267601 79.229599 -0.042641 202 231 134
60.133598 79.040604 -0.047032 202 231 134
61.095501 80.386703 -0.018299 202 231 134
60.958199 81.023399 -0.010099 202 231 134
61.091702 80.933296 -0.010064 202 231 134
61.189899 80.388802 -0.018203 202 231 134
61.189602 80.323097 -0.019376 202 231 134
61.213402 80.830399 -0.011518 202 231 134
61.171700 80.944199 -0.009912 202 231 134
61.331600 80.298897 -0.017389 202 231 134
60.860298 79.742798 -0.031372 202 231 134
61.050598 79.792900 -0.028891 202 231 134
61.266701 80.070602 -0.021821 202 231 134
61.321602 79.981697 -0.022325 202 231 134
50.977699 70.196503 -0.169317 202 231 134
52.987801 71.545502 -0.167459 202 231 134
52.535900 71.064697 -0.169281 202 231 134
52.773499 71.086197 -0.168437 202 231 134
52.921299 71.255600 -0.168417 202 231 134
50.648499 70.023499 -0.168024 202 231 134
50.556099 69.995399 -0.167481 202 231 134
50.596199 69.997803 -0.168714 202 231 134
49.302898 70.076698 -0.161305 202 231 134
48.936901 69.707497 -0.160022 202 231 134
48.813801 69.721497 -0.159380 202 231 134
41.108501 69.957001 -0.065447 202 231 134
41.136299 69.899101 -0.065179 202 231 134
41.165501 69.853897 -0.066854 202 231 134
41.757000 69.708900 -0.078140 202 231 134
41.467899 69.586197 -0.073955 202 231 134
40.009201 70.263603 -0.042020 202 231 134
40.120602 70.197098 -0.045768 202 231 134
39.904999 70.334702 -0.039728 202 231 134
39.957100 70.249802 -0.041421 202 231 134
40.147900 70.119301 -0.047091 202 231 134
40.099899 70.012703 -0.045839 202 231 134
39.628700 70.250900 -0.034546 202 231 134
40.322201 69.915298 -0.051498 202 231 134
39.572201 70.252701 -0.033033 202 231 134
38.970299 70.605904 0.055722 202 231 134
39.603401 70.151299 -0.035709 202 231 134
39.568802 70.116302 -0.034579 202 231 134
40.004799 69.874603 -0.044939 202 231 134
40.413898 69.700996 -0.053710 202 231 134
41.125900 69.712303 -0.066921 202 231 134
41.193600 69.586502 -0.067780 202 231 134
40.966900 69.634499 -0.063427 202 231 134
41.662498 69.403801 -0.076527 202 231 134
41.818600 69.463203 -0.079121 202 231 134
40.913700 69.468597 -0.063442 202 231 134
40.478500 69.648399 -0.055433 202 231 134
38.528500 70.663696 0.137440 202 231 134
38.601299 70.211304 0.121011 202 231 134
45.077400 69.072998 -0.126710 202 231 134
45.441399 69.109802 -0.130688 202 231 134
45.610199 69.168900 -0.132983 202 231 134
45.012001 68.945999 -0.125179 202 231 134
44.934700 68.963402 -0.124215 202 231 134
44.889801 68.963898 -0.124464 202 231 134
45.233898 68.920998 -0.128934 202 231 134
46.388401 69.409798 -0.140962 202 231 134
46.167702 69.257797 -0.138940 202 231 134
46.667599 69.462898 -0.143774 202 231 134
47.338200 69.672600 -0.148646 202 231 134
