ply
format ascii 1.0
comment author: F. Lafarge
element vertex 1138
property float x
property float y
property float z
property uchar red
property uchar green
property uchar blue
end_header
55.441502 87.058601 34.389301 249 249 179
55.235901 86.921204 35.080101 249 249 179
55.332901 86.933296 35.052502 249 249 179
55.309101 86.890198 35.131001 249 249 179
55.660900 87.117203 34.075401 249 249 179
55.764500 87.117500 34.080002 249 249 179
55.970798 87.179901 33.740101 249 249 179
55.983501 87.175499 33.764801 249 249 179
55.923100 87.073303 34.317001 249 249 179
56.088501 87.094498 34.202599 249 249 179
39.102699 87.144096 14.628600 249 249 179
38.833401 87.094101 14.754600 249 249 179
38.922901 87.110199 14.591500 249 249 179
39.142399 87.149803 14.456500 249 249 179
38.990799 87.121300 14.387500 249 249 179
55.381199 87.369598 19.713800 249 249 179
55.364700 87.370300 19.638700 249 249 179
55.290501 87.370796 19.441601 249 249 179
54.607601 87.371399 18.895800 249 249 179
54.904598 87.371101 19.045700 249 249 179
54.766399 87.371201 18.934799 249 249 179
55.316601 87.369904 19.397200 249 249 179
55.162701 87.371300 19.069000 249 249 179
55.633598 87.364304 20.782499 249 249 179
55.762501 87.365601 20.598101 249 249 179
55.781898 87.367897 20.217899 249 249 179
55.524300 87.369797 19.694500 249 249 179
54.324799 87.371399 18.409599 249 249 179
53.793900 87.369499 17.903000 249 249 179
54.856899 87.371201 18.826500 249 249 179
54.683498 87.370499 18.608999 249 249 179
55.225498 87.370598 18.937799 249 249 179
55.221401 87.370796 18.901501 249 249 179
54.363300 87.370201 18.084900 249 249 179
54.668999 87.370499 18.343700 249 249 179
54.619598 87.371498 18.165600 249 249 179
56.210800 87.359398 21.111099 249 249 179
56.157902 87.363503 20.666300 249 249 179
56.529701 87.355202 21.568800 249 249 179
56.524700 87.357498 21.263300 249 249 179
56.545399 87.358498 21.109100 249 249 179
56.849701 87.352898 21.871401 249 249 179
57.077499 87.350800 22.037500 249 249 179
56.734501 87.355103 21.509600 249 249 179
57.312199 87.337799 23.767900 249 249 179
57.311199 87.336502 23.955400 249 249 179
57.586899 87.336304 23.804399 249 249 179
57.570499 87.334000 24.024200 249 249 179
57.638401 87.333801 24.063900 249 249 179
57.652401 87.333504 24.087400 249 249 179
57.610699 87.330597 24.481001 249 249 179
57.480801 87.329300 24.642900 249 249 179
57.620098 87.336800 23.695900 249 249 179
57.424599 87.341904 23.074301 249 249 179
57.429699 87.340698 23.212200 249 249 179
57.275398 87.345001 22.719900 249 249 179
57.532101 87.341904 23.147800 249 249 179
57.844002 87.333900 23.840401 249 249 179
57.608002 87.326500 24.922001 249 249 179
57.538399 87.325897 25.086300 249 249 179
57.908401 87.328499 24.527000 249 249 179
57.562302 87.324097 25.249500 249 249 179
57.482800 87.322502 25.429899 249 249 179
57.561298 87.319901 25.708900 249 249 179
57.837399 87.331200 24.273399 249 249 179
58.037201 87.320801 25.337500 249 249 179
57.404900 87.317703 26.033199 249 249 179
57.603802 87.316704 26.022800 249 249 179
57.854500 87.317001 25.819599 249 249 179
57.611401 87.311501 26.554501 249 249 179
57.398300 87.309998 26.720800 249 249 179
57.976398 87.313103 26.201401 249 249 179
58.049500 87.312698 26.101000 249 249 179
56.073002 87.368896 19.980400 249 249 179
57.262199 87.347198 22.440100 249 249 179
57.373402 87.345100 22.608101 249 249 179
57.091301 87.350197 22.069500 249 249 179
57.034599 87.354698 21.485100 249 249 179
57.063801 87.355904 21.377300 249 249 179
56.485401 87.360802 20.846500 249 249 179
56.483002 87.360497 20.764500 249 249 179
57.466499 87.344299 22.712400 249 249 179
57.438099 87.346001 22.554701 249 249 179
57.507099 87.345398 22.635900 249 249 179
57.616001 87.341202 23.091000 249 249 179
57.792999 87.340401 23.041599 249 249 179
57.150600 87.350899 22.039700 249 249 179
57.196098 87.351898 21.902300 249 249 179
51.905602 87.362000 16.442900 249 249 179
52.217999 87.363297 16.673300 249 249 179
51.693802 87.359703 16.276199 249 249 179
53.414700 87.368896 17.614799 249 249 179
53.451500 87.369102 17.628500 249 249 179
53.412601 87.367897 17.442699 249 249 179
53.814602 87.367996 17.624800 249 249 179
54.073002 87.369797 17.772499 249 249 179
54.171001 87.369301 17.813200 249 249 179
54.005501 87.368599 17.610800 249 249 179
52.406399 87.363800 16.712000 249 249 179
51.963100 87.359802 16.263000 249 249 179
51.546299 87.356499 16.125200 249 249 179
52.245399 87.362099 16.411400 249 249 179
52.448799 87.363602 16.637600 249 249 179
52.417400 87.362801 16.510799 249 249 179
52.550301 87.362900 16.588699 249 249 179
53.318699 87.366699 17.087200 249 249 179
53.431702 87.365898 17.062599 249 249 179
53.457100 87.365402 17.013399 249 249 179
52.899799 87.364601 16.823601 249 249 179
52.838600 87.364700 16.793800 249 249 179
54.213501 87.368202 17.652201 249 249 179
54.192001 87.368599 17.620100 249 249 179
53.231098 87.365799 16.924400 249 249 179
53.028801 87.364197 16.688299 249 249 179
52.912701 87.363403 16.505501 249 249 179
52.567699 87.362999 16.494801 249 249 179
52.704399 87.361298 16.202499 249 249 179
52.196800 87.359802 16.197800 249 249 179
52.193199 87.359398 16.187700 249 249 179
52.220001 87.359596 16.174400 249 249 179
52.196400 87.359299 16.162201 249 249 179
51.788601 87.353996 15.639600 249 249 179
51.923000 87.357399 15.935400 249 249 179
52.048302 87.358803 16.072599 249 249 179
42.549900 87.256302 13.729500 249 249 179
43.424801 87.268700 13.752100 249 249 179
43.790501 87.271599 13.439700 249 249 179
44.042400 87.274696 13.429400 249 249 179
44.259399 87.279198 13.533900 249 249 179
43.609600 87.267502 13.274100 249 249 179
43.691002 87.268303 13.231500 249 249 179
43.672699 87.267403 13.234300 249 249 179
44.019501 87.272102 13.221700 249 249 179
44.330002 87.278397 13.373100 249 249 179
44.618999 87.285202 13.626900 249 249 179
44.588200 87.281303 13.423900 249 249 179
45.313400 87.296402 14.001000 249 249 179
45.644402 87.298897 13.774400 249 249 179
45.132000 87.291496 13.668800 249 249 179
46.061600 87.301399 13.704000 249 249 179
45.427200 87.290901 13.291800 249 249 179
43.176601 87.263397 13.602500 249 249 179
43.003502 87.260696 13.543600 249 249 179
42.771000 87.256897 13.493400 249 249 179
42.213001 87.249298 13.684800 249 249 179
41.791199 87.243698 13.926600 249 249 179
42.285198 87.249496 13.567400 249 249 179
46.246799 87.302101 13.661300 249 249 179
46.968601 87.309601 13.860600 249 249 179
46.932400 87.307899 13.793900 249 249 179
46.726299 87.304703 13.598000 249 249 179
45.628700 87.292000 13.240200 249 249 179
47.218102 87.312401 14.027500 249 249 179
47.295101 87.312103 13.882300 249 249 179
46.894001 87.306198 13.701700 249 249 179
47.917999 87.318199 14.181900 249 249 179
47.960300 87.317398 14.130600 249 249 179
41.887001 87.243301 13.625800 249 249 179
41.981899 87.244400 13.609200 249 249 179
42.650799 87.253197 13.357900 249 249 179
42.798698 87.255302 13.335100 249 249 179
42.386600 87.248596 13.287600 249 249 179
42.764099 87.254097 13.251100 249 249 179
44.303200 87.275200 13.174200 249 249 179
43.410900 87.264702 13.279200 249 249 179
43.519402 87.264702 13.192900 249 249 179
39.644001 87.207603 14.413700 249 249 179
39.560501 87.205002 14.325600 249 249 179
39.239300 87.168404 14.444500 249 249 179
39.408199 87.197701 14.266900 249 249 179
39.611900 87.205200 14.230300 249 249 179
39.590900 87.203499 14.077800 249 249 179
40.279800 87.217400 14.093200 249 249 179
40.308300 87.217300 14.089700 249 249 179
40.344601 87.216202 13.911900 249 249 179
40.772999 87.224098 13.808800 249 249 179
40.364799 87.214699 13.737200 249 249 179
40.326099 87.213699 13.689100 249 249 179
40.240501 87.212700 13.713000 249 249 179
39.975899 87.208504 13.875200 249 249 179
39.764099 87.206497 14.047600 249 249 179
39.852901 87.206398 13.864300 249 249 179
41.325199 87.233299 13.776700 249 249 179
41.402100 87.234398 13.675600 249 249 179
41.106701 87.226700 13.450400 249 249 179
41.670601 87.238800 13.542400 249 249 179
38.265400 86.987396 14.750000 249 249 179
38.215500 86.977097 14.655100 249 249 179
37.899601 86.919403 14.765200 249 249 179
38.171299 86.967796 14.437100 249 249 179
38.640099 87.054901 14.368800 249 249 179
37.970001 86.928299 14.361900 249 249 179
38.237400 86.977699 14.217700 249 249 179
48.016300 87.318497 14.136300 249 249 179
46.326000 87.299103 13.372900 249 249 179
46.735901 87.301102 13.315200 249 249 179
46.398899 87.297302 13.231500 249 249 179
46.264099 87.295601 13.163800 249 249 179
47.024799 87.305298 13.492500 249 249 179
46.951900 87.301102 13.197600 249 249 179
50.804600 87.344704 15.156300 249 249 179
50.624298 87.340897 14.912500 249 249 179
49.008099 87.325798 14.383200 249 249 179
49.085400 87.326897 14.471000 249 249 179
48.962502 87.323402 14.208600 249 249 179
49.228401 87.328201 14.498700 249 249 179
49.274101 87.328300 14.475300 249 249 179
49.636299 87.330399 14.532100 249 249 179
48.669399 87.320099 14.023300 249 249 179
49.026100 87.323097 14.166100 249 249 179
49.071602 87.324501 14.203500 249 249 179
49.474800 87.329201 14.381000 249 249 179
49.591400 87.329597 14.404900 249 249 179
49.736401 87.332397 14.533400 249 249 179
49.852100 87.333298 14.634000 249 249 179
49.063801 87.321999 13.981100 249 249 179
49.177601 87.322998 14.045000 249 249 179
49.235600 87.322899 14.002500 249 249 179
48.548500 87.315804 13.650000 249 249 179
48.848099 87.317802 13.672500 249 249 179
48.353600 87.314400 13.627700 249 249 179
50.616001 87.339996 14.809800 249 249 179
50.664501 87.340401 14.799400 249 249 179
50.942101 87.344101 15.131200 249 249 179
50.890301 87.342003 14.920000 249 249 179
51.154999 87.345200 15.084900 249 249 179
51.043999 87.344299 14.943400 249 249 179
50.285599 87.336098 14.658000 249 249 179
50.028099 87.333900 14.596500 249 249 179
50.085999 87.334702 14.565200 249 249 179
51.271000 87.346703 15.106100 249 249 179
51.096500 87.342697 14.868200 249 249 179
51.326302 87.346199 14.975800 249 249 179
50.922501 87.339897 14.699500 249 249 179
51.521801 87.348503 15.121000 249 249 179
51.369499 87.344299 14.747800 249 249 179
56.769600 87.219002 33.496601 249 249 179
57.430401 87.306702 27.106800 249 249 179
57.534901 87.305298 27.219101 249 249 179
57.789299 87.294296 28.008499 249 249 179
57.583500 87.301300 27.502600 249 249 179
57.932701 87.295097 27.961100 249 249 179
58.043701 87.284302 28.760500 249 249 179
58.025600 87.280098 29.115400 249 249 179
57.955700 87.297798 27.622999 249 249 179
57.987202 87.294098 27.971800 249 249 179
57.972000 87.300903 27.450100 249 249 179
58.225201 87.294998 27.799700 249 249 179
58.235199 87.298897 27.466101 249 249 179
58.191700 87.286697 28.529400 249 249 179
58.238800 87.284203 28.702999 249 249 179
58.302399 87.291603 27.995399 249 249 179
58.377499 87.296303 27.647600 249 249 179
58.156101 87.270699 29.788799 249 249 179
58.223099 87.272003 29.672300 249 249 179
57.357399 87.256897 30.972601 249 249 179
57.596600 87.253502 31.151199 249 249 179
58.060902 87.257500 30.760201 249 249 179
58.124401 87.259003 30.645399 249 249 179
58.079201 87.255699 30.851900 249 249 179
57.801300 87.251503 31.177700 249 249 179
58.193901 87.260597 30.562500 249 249 179
58.244099 87.267303 30.028299 249 249 179
58.325401 87.264000 30.284300 249 249 179
58.230400 87.252602 30.986200 249 249 179
57.722099 87.247498 31.418501 249 249 179
58.400002 87.255501 30.746799 249 249 179
57.478401 87.247803 31.524500 249 249 179
58.429001 87.271500 29.635099 249 249 179
58.458199 87.280502 28.902201 249 249 179
58.647701 87.267303 29.907801 249 249 179
58.540798 87.264297 30.157000 249 249 179
58.593399 87.263397 30.149000 249 249 179
58.652699 87.265503 30.018801 249 249 179
58.543800 87.258904 30.461901 249 249 179
58.716301 87.266197 29.905800 249 249 179
58.619801 87.258202 30.463800 249 249 179
58.755402 87.262299 30.165001 249 249 179
58.267700 87.285004 28.651600 249 249 179
58.590900 87.276604 29.165600 249 249 179
57.437599 87.243103 31.782000 249 249 179
57.382702 87.240799 31.949100 249 249 179
57.703800 87.239700 31.880199 249 249 179
57.547199 87.234497 32.315201 249 249 179
57.771400 87.243500 31.700001 249 249 179
56.444901 87.128601 34.020401 249 249 179
57.027802 87.222298 33.163799 249 249 179
56.389400 87.110199 34.116299 249 249 179
57.058998 87.219200 33.413101 249 249 179
57.271301 87.223701 33.003201 249 249 179
57.429100 87.225502 32.904301 249 249 179
57.376099 87.222603 33.032299 249 249 179
57.000099 87.201500 33.608799 249 249 179
57.279900 87.219002 33.334900 249 249 179
57.647999 87.229202 32.540501 249 249 179
57.563000 87.221001 33.088600 249 249 179
57.770599 87.222000 32.977100 249 249 179
57.651299 87.219498 33.160099 249 249 179
57.729099 87.220398 33.090099 249 249 179
57.795300 87.222099 33.003502 249 249 179
57.471298 87.218399 33.329700 249 249 179
57.830601 87.218697 33.145802 249 249 179
56.843102 87.153702 33.871399 249 249 179
55.801601 86.996902 34.722900 249 249 179
55.798401 87.004303 34.683300 249 249 179
55.853100 86.972000 34.856098 249 249 179
56.370899 87.027702 34.564602 249 249 179
56.404598 87.038300 34.503300 249 249 179
56.303699 87.006500 34.682499 249 249 179
56.454601 87.059998 34.390999 249 249 179
39.061401 87.132500 14.206500 249 249 179
38.804699 87.084396 14.266000 249 249 179
39.167198 87.151398 14.145500 249 249 179
39.032700 87.126503 14.106400 249 249 179
38.823700 87.086601 14.105200 249 249 179
38.691200 87.063400 14.201500 249 249 179
38.884499 87.098396 14.049100 249 249 179
38.493900 87.023300 13.984000 249 249 179
55.534199 87.370300 19.265900 249 249 179
55.368999 87.370903 19.236099 249 249 179
55.601898 87.371002 19.053400 249 249 179
55.824100 87.370201 19.151100 249 249 179
55.973000 87.370003 19.273600 249 249 179
55.338699 87.371300 18.971201 249 249 179
55.278500 87.371002 18.636600 249 249 179
55.411598 87.371696 18.483101 249 249 179
56.240601 87.367699 20.052601 249 249 179
56.121498 87.368599 19.940399 249 249 179
56.186001 87.368797 19.963400 249 249 179
56.316399 87.367996 19.889799 249 249 179
56.459202 87.366898 20.046600 249 249 179
56.493401 87.364197 20.294701 249 249 179
56.110401 87.370796 19.299801 249 249 179
56.033401 87.371101 19.200500 249 249 179
54.930401 87.370201 18.062500 249 249 179
53.993198 87.368797 17.523500 249 249 179
54.009602 87.367798 17.362000 249 249 179
55.164101 87.371002 18.254700 249 249 179
55.272999 87.370598 18.183599 249 249 179
54.927601 87.370003 17.938900 249 249 179
54.687500 87.368202 17.600300 249 249 179
55.099400 87.370201 17.986401 249 249 179
55.163898 87.369904 18.024000 249 249 179
56.584801 87.363503 20.441000 249 249 179
56.696899 87.361603 20.522100 249 249 179
56.829201 87.359497 20.670500 249 249 179
56.842201 87.359398 20.740999 249 249 179
57.132500 87.355698 21.370501 249 249 179
57.118198 87.357803 20.957399 249 249 179
57.327499 87.352097 21.816200 249 249 179
57.259201 87.353897 21.618799 249 249 179
57.410198 87.350700 21.881800 249 249 179
57.432301 87.351402 21.825100 249 249 179
57.623901 87.349403 22.017000 249 249 179
57.216301 87.355301 21.419201 249 249 179
57.902802 87.333099 23.881399 249 249 179
57.993599 87.334900 23.716600 249 249 179
58.101700 87.335999 23.487700 249 249 179
58.030800 87.330399 24.223700 249 249 179
57.942501 87.337502 23.293400 249 249 179
58.151699 87.330101 24.115400 249 249 179
58.246101 87.323898 24.695000 249 249 179
57.931099 87.338997 23.127800 249 249 179
58.266602 87.334198 23.608200 249 249 179
57.924000 87.339897 23.092600 249 249 179
57.764702 87.345200 22.488899 249 249 179
58.308800 87.332497 23.700001 249 249 179
58.370602 87.329201 24.077400 249 249 179
58.378399 87.334999 23.439301 249 249 179
58.158100 87.319000 25.399300 249 249 179
58.330700 87.320801 25.039600 249 249 179
58.228802 87.319397 25.367599 249 249 179
58.184299 87.317398 25.539101 249 249 179
58.335400 87.325600 24.569599 249 249 179
58.536201 87.323402 24.551500 249 249 179
58.409901 87.321404 24.990700 249 249 179
58.069599 87.313499 26.091200 249 249 179
58.209301 87.316200 25.685699 249 249 179
58.452000 87.317802 25.317200 249 249 179
58.562901 87.316101 25.471300 249 249 179
58.515301 87.313698 25.697800 249 249 179
58.592701 87.313499 25.603800 249 249 179
58.142399 87.312103 26.064199 249 249 179
58.080700 87.312698 26.170200 249 249 179
58.218201 87.310997 26.245100 249 249 179
58.374401 87.311203 26.040600 249 249 179
58.183201 87.308403 26.501499 249 249 179
58.139301 87.305099 26.820801 249 249 179
58.313000 87.305603 26.608500 249 249 179
58.493401 87.306099 26.540400 249 249 179
58.490799 87.304604 26.595200 249 249 179
58.428902 87.304398 26.728201 249 249 179
58.675301 87.305901 26.320400 249 249 179
58.695702 87.311302 25.875099 249 249 179
56.513302 87.368103 19.827900 249 249 179
56.544800 87.368401 19.684099 249 249 179
56.612999 87.369202 19.684799 249 249 179
56.701302 87.365303 20.116899 249 249 179
56.484299 87.369598 19.376301 249 249 179
56.308201 87.370697 19.251499 249 249 179
57.808399 87.346100 22.297800 249 249 179
57.732300 87.348396 22.053699 249 249 179
57.874500 87.344299 22.563400 249 249 179
57.929001 87.343803 22.520700 249 249 179
56.882900 87.362999 20.339899 249 249 179
57.122700 87.360100 20.467100 249 249 179
56.876900 87.364197 20.161699 249 249 179
57.905602 87.346901 22.211000 249 249 179
58.129200 87.341400 22.819099 249 249 179
58.129902 87.340797 22.750601 249 249 179
58.291100 87.337097 23.141399 249 249 179
58.316502 87.339500 22.850201 249 249 179
57.840199 87.347702 22.015900 249 249 179
53.989101 87.364799 16.905701 249 249 179
52.223000 87.357300 15.914300 249 249 179
51.970402 87.355598 15.644900 249 249 179
52.845200 87.360497 16.226000 249 249 179
53.440201 87.364403 16.627600 249 249 179
53.581799 87.364098 16.667801 249 249 179
53.714401 87.363602 16.733200 249 249 179
53.425900 87.361900 16.422701 249 249 179
53.622501 87.362198 16.393101 249 249 179
53.206001 87.362396 16.409800 249 249 179
54.568600 87.364899 17.005800 249 249 179
54.962002 87.366898 17.404100 249 249 179
53.206799 87.361603 16.194401 249 249 179
52.630402 87.356598 15.666900 249 249 179
52.203499 87.355003 15.532100 249 249 179
51.951698 87.350304 15.167800 249 249 179
52.441898 87.354897 15.555100 249 249 179
51.948002 87.348801 14.942300 249 249 179
52.340500 87.352699 15.171500 249 249 179
52.282501 87.351196 15.104700 249 249 179
42.694000 87.252800 13.192200 249 249 179
42.238400 87.245102 13.226500 249 249 179
43.089001 87.259102 13.259600 249 249 179
42.736099 87.252296 13.034900 249 249 179
43.344002 87.262703 13.248100 249 249 179
43.227798 87.259804 13.063700 249 249 179
44.322102 87.272797 12.879300 249 249 179
44.229099 87.271400 12.811800 249 249 179
44.712002 87.281097 13.211500 249 249 179
43.162998 87.255997 12.881400 249 249 179
43.520901 87.259903 12.652400 249 249 179
43.565102 87.260002 12.599400 249 249 179
43.712200 87.261597 12.568000 249 249 179
44.194401 87.268600 12.619500 249 249 179
44.548401 87.273697 12.803100 249 249 179
44.643299 87.276100 12.850300 249 249 179
44.936298 87.281898 13.127000 249 249 179
45.657101 87.291397 13.158400 249 249 179
46.018799 87.292503 13.038100 249 249 179
45.521599 87.285301 12.730600 249 249 179
45.005001 87.276901 12.576400 249 249 179
45.984299 87.287399 12.612800 249 249 179
45.556099 87.281799 12.410500 249 249 179
42.878101 87.252701 12.957500 249 249 179
42.819401 87.251404 12.858000 249 249 179
41.715698 87.237297 13.285200 249 249 179
42.076500 87.241699 13.056100 249 249 179
41.602798 87.235199 13.400900 249 249 179
41.599899 87.233803 13.194000 249 249 179
47.565601 87.311401 13.689600 249 249 179
47.614899 87.309700 13.517500 249 249 179
47.367500 87.303596 13.214000 249 249 179
47.045898 87.299797 13.033800 249 249 179
46.531601 87.293701 12.794900 249 249 179
45.967701 87.286003 12.554500 249 249 179
47.944000 87.314003 13.744500 249 249 179
47.650600 87.306396 13.322400 249 249 179
47.768299 87.308502 13.396100 249 249 179
47.783600 87.307899 13.350000 249 249 179
48.064499 87.311203 13.507000 249 249 179
41.272099 87.227303 13.177900 249 249 179
41.620701 87.231201 12.887100 249 249 179
41.884300 87.236198 12.807500 249 249 179
42.680199 87.247299 12.604700 249 249 179
44.408401 87.271301 12.626900 249 249 179
44.287201 87.269096 12.549600 249 249 179
44.677502 87.274002 12.664600 249 249 179
43.703800 87.260201 12.514300 249 249 179
39.545502 87.199997 13.815100 249 249 179
39.696400 87.201401 13.697300 249 249 179
39.522099 87.196404 13.473100 249 249 179
40.115898 87.209702 13.639600 249 249 179
40.237701 87.210800 13.442000 249 249 179
40.682800 87.219498 13.555500 249 249 179
40.277401 87.209000 13.208800 249 249 179
40.891701 87.222198 13.397900 249 249 179
40.878601 87.222000 13.348200 249 249 179
41.014500 87.223396 13.303200 249 249 179
40.463001 87.211304 13.085000 249 249 179
39.858200 87.200798 13.259900 249 249 179
41.019600 87.222099 13.095400 249 249 179
41.104198 87.222099 13.013900 249 249 179
40.878799 87.219002 13.007100 249 249 179
41.213699 87.223701 12.839000 249 249 179
38.203098 86.971001 14.136900 249 249 179
38.385799 87.005096 14.088300 249 249 179
37.802399 86.858200 14.187400 249 249 179
37.904099 86.913399 13.980100 249 249 179
37.978001 86.926201 13.872700 249 249 179
38.131401 86.953499 13.749800 249 249 179
37.995899 86.927803 13.694200 249 249 179
38.394501 87.002998 13.629800 249 249 179
46.750599 87.294403 12.767000 249 249 179
46.456799 87.290703 12.617200 249 249 179
47.058998 87.296799 12.736600 249 249 179
47.342899 87.299400 12.877100 249 249 179
47.589401 87.302498 12.969500 249 249 179
47.452900 87.297401 12.676900 249 249 179
46.869900 87.290901 12.473000 249 249 179
50.678902 87.337997 14.554800 249 249 179
50.959801 87.339600 14.557000 249 249 179
50.588100 87.334602 14.372000 249 249 179
50.439602 87.334503 14.363500 249 249 179
49.542400 87.328300 14.287400 249 249 179
49.535400 87.328300 14.240900 249 249 179
49.112701 87.319901 13.793700 249 249 179
49.421200 87.323799 13.950600 249 249 179
49.546101 87.326599 14.124600 249 249 179
49.048199 87.317398 13.560300 249 249 179
49.036701 87.317497 13.539600 249 249 179
50.258301 87.332397 14.344000 249 249 179
50.227901 87.331200 14.238200 249 249 179
50.223000 87.331398 14.227000 249 249 179
49.200500 87.319099 13.655500 249 249 179
49.376999 87.321602 13.749100 249 249 179
48.711300 87.313499 13.341000 249 249 179
48.681999 87.311501 13.276600 249 249 179
48.281200 87.308502 13.176000 249 249 179
48.533199 87.307899 13.016800 249 249 179
48.339100 87.307098 13.005600 249 249 179
48.052799 87.307800 13.146900 249 249 179
48.734200 87.308701 12.963600 249 249 179
49.275700 87.315598 13.249200 249 249 179
47.876099 87.308502 13.286400 249 249 179
51.305901 87.341698 14.555400 249 249 179
50.145802 87.330101 14.113800 249 249 179
50.153000 87.329597 14.097500 249 249 179
50.392700 87.331902 14.090800 249 249 179
52.008400 87.348099 14.871700 249 249 179
51.536999 87.340897 14.356900 249 249 179
52.121601 87.349503 14.880000 249 249 179
51.871399 87.343697 14.469700 249 249 179
51.798000 87.341698 14.296800 249 249 179
56.957699 87.169098 33.787899 249 249 179
57.186100 87.193802 33.645599 249 249 179
57.320702 87.205704 33.578098 249 249 179
57.299599 87.180099 33.717999 249 249 179
57.304001 87.156898 33.844200 249 249 179
58.191700 87.304497 26.941099 249 249 179
58.404800 87.291496 27.935801 249 249 179
58.454800 87.291801 27.949600 249 249 179
58.425201 87.295799 27.671000 249 249 179
58.557499 87.292000 27.847500 249 249 179
58.667400 87.283501 28.573900 249 249 179
58.623100 87.285301 28.409700 249 249 179
58.753201 87.278198 29.010500 249 249 179
58.470798 87.299301 27.309200 249 249 179
58.486599 87.299202 27.252701 249 249 179
58.743000 87.293098 27.641899 249 249 179
58.821899 87.286797 28.199400 249 249 179
58.548199 87.300797 27.039700 249 249 179
58.646900 87.300003 27.052700 249 249 179
58.849800 87.282097 28.580200 249 249 179
58.894100 87.281303 28.642000 249 249 179
58.980301 87.279198 28.849501 249 249 179
58.970001 87.290802 27.821699 249 249 179
58.918800 87.296700 27.346600 249 249 179
58.991100 87.293404 27.540400 249 249 179
58.750702 87.270103 29.595100 249 249 179
58.849800 87.267601 29.778601 249 249 179
58.089298 87.243500 31.549801 249 249 179
58.525799 87.248703 31.097500 249 249 179
58.471699 87.246498 31.223600 249 249 179
58.690601 87.253998 30.731600 249 249 179
58.539299 87.247101 31.172199 249 249 179
58.532700 87.246399 31.214300 249 249 179
58.737000 87.256104 30.551800 249 249 179
58.491901 87.243401 31.410200 249 249 179
58.076302 87.239998 31.799900 249 249 179
58.818199 87.252800 30.733101 249 249 179
58.888302 87.262199 30.149599 249 249 179
58.816502 87.248398 30.997900 249 249 179
58.678902 87.242203 31.429800 249 249 179
59.064602 87.251503 30.706100 249 249 179
58.931999 87.269798 29.507999 249 249 179
58.914700 87.273003 29.272699 249 249 179
59.043900 87.268997 29.578699 249 249 179
59.057899 87.266502 29.727800 249 249 179
58.915798 87.261902 30.074301 249 249 179
59.001202 87.275101 29.106600 249 249 179
59.019001 87.280800 28.660400 249 249 179
58.961399 87.284798 28.346001 249 249 179
59.138699 87.260902 30.103399 249 249 179
59.330299 87.259003 30.160400 249 249 179
58.111301 87.233299 32.176399 249 249 179
58.252399 87.234398 32.035599 249 249 179
58.052101 87.229897 32.408798 249 249 179
58.163200 87.225403 32.585098 249 249 179
58.544399 87.238701 31.639700 249 249 179
56.950199 87.073402 34.298199 249 249 179
56.744598 87.023003 34.578800 249 249 179
57.027199 87.066299 34.341000 249 249 179
57.525501 87.214996 33.472198 249 249 179
57.331902 87.133698 33.968899 249 249 179
57.816601 87.218002 33.185200 249 249 179
57.150398 87.094299 34.180199 249 249 179
57.738602 87.189697 33.648899 249 249 179
58.189701 87.222000 32.810001 249 249 179
57.973099 87.212601 33.433399 249 249 179
58.326900 87.211197 33.338501 249 249 179
58.469799 87.216003 33.029999 249 249 179
57.543999 87.121399 34.026402 249 249 179
56.431301 86.954697 34.954899 249 249 179
56.578701 86.941902 35.018902 249 249 179
56.741901 86.961197 34.910400 249 249 179
57.026798 87.018700 34.591099 249 249 179
57.036499 86.964401 34.891300 249 249 179
56.870499 86.866997 35.171902 249 249 179
39.061901 87.126503 13.540000 249 249 179
38.791302 87.074997 13.453800 249 249 179
38.475800 87.016800 13.482500 249 249 179
38.107498 86.947800 13.523600 249 249 179
38.433601 87.006699 13.376800 249 249 179
55.982399 87.370201 18.889000 249 249 179
56.096298 87.371101 18.797701 249 249 179
56.295601 87.370697 19.202600 249 249 179
56.024700 87.370903 18.598301 249 249 179
56.128201 87.370598 18.696699 249 249 179
56.200298 87.370598 18.785500 249 249 179
56.322701 87.371101 18.936399 249 249 179
56.616001 87.368698 19.250200 249 249 179
56.621399 87.368301 19.066200 249 249 179
55.591099 87.370598 18.142300 249 249 179
55.967800 87.371300 18.423599 249 249 179
55.818401 87.370102 17.951700 249 249 179
55.629501 87.369598 17.849899 249 249 179
55.523602 87.368797 17.812201 249 249 179
57.011299 87.363297 20.118299 249 249 179
57.043999 87.366096 19.690300 249 249 179
56.625599 87.368599 18.920601 249 249 179
56.445400 87.370697 18.626200 249 249 179
55.195099 87.368896 17.674200 249 249 179
55.229099 87.368500 17.630600 249 249 179
55.314800 87.368500 17.608200 249 249 179
54.499500 87.363899 16.842300 249 249 179
55.640800 87.369102 17.785299 249 249 179
55.756802 87.369400 17.813999 249 249 179
55.066700 87.366203 17.180300 249 249 179
55.077499 87.364799 17.023701 249 249 179
57.181999 87.360802 20.327101 249 249 179
57.161098 87.361504 20.227501 249 249 179
57.206600 87.359398 20.563499 249 249 179
57.242802 87.358398 20.659901 249 249 179
57.216099 87.361504 20.251600 249 249 179
57.648899 87.355698 20.977699 249 249 179
57.488602 87.360298 20.453899 249 249 179
57.860901 87.352997 21.351500 249 249 179
58.032101 87.350700 21.496401 249 249 179
58.145500 87.346703 22.010799 249 249 179
58.212601 87.345596 22.076401 249 249 179
58.179001 87.343903 22.257799 249 249 179
57.878399 87.354500 21.184999 249 249 179
58.525501 87.332199 23.629999 249 249 179
58.435101 87.335098 23.259001 249 249 179
58.609001 87.333397 23.473301 249 249 179
58.725498 87.327103 24.050900 249 249 179
58.896801 87.322197 24.459101 249 249 179
58.999298 87.321503 24.461100 249 249 179
59.041100 87.320000 24.612801 249 249 179
58.486000 87.337997 22.885201 249 249 179
58.749401 87.330002 23.706900 249 249 179
58.688400 87.336197 23.079100 249 249 179
58.330898 87.342300 22.352600 249 249 179
58.857601 87.327202 23.958500 249 249 179
58.869099 87.325600 24.173000 249 249 179
58.889702 87.324699 24.192900 249 249 179
58.720901 87.336899 22.994301 249 249 179
58.951199 87.333504 23.222799 249 249 179
58.833199 87.336098 23.000099 249 249 179
58.987701 87.322998 24.307899 249 249 179
59.048100 87.320999 24.521099 249 249 179
59.059601 87.321503 24.497801 249 249 179
59.037201 87.311501 25.570801 249 249 179
58.942200 87.308899 25.916700 249 249 179
59.071098 87.307404 25.934401 249 249 179
58.937401 87.307198 26.067301 249 249 179
59.219799 87.308701 25.735800 249 249 179
58.716900 87.306999 26.255699 249 249 179
58.580002 87.303703 26.671200 249 249 179
58.800800 87.304199 26.459400 249 249 179
58.719501 87.303001 26.692400 249 249 179
58.823601 87.304100 26.414400 249 249 179
58.973900 87.301598 26.718599 249 249 179
58.933701 87.300301 26.815201 249 249 179
59.078899 87.304398 26.243099 249 249 179
59.195702 87.304901 26.124300 249 249 179
57.270699 87.364899 19.793100 249 249 179
57.056599 87.366699 19.173100 249 249 179
58.238300 87.347198 21.943800 249 249 179
58.146702 87.349998 21.586300 249 249 179
57.506500 87.359901 20.286100 249 249 179
57.541901 87.360397 20.402000 249 249 179
58.516899 87.342499 22.280001 249 249 179
58.498199 87.345200 21.988701 249 249 179
58.554901 87.341797 22.369400 249 249 179
58.592201 87.341698 22.364100 249 249 179
58.836700 87.338898 22.564899 249 249 179
58.044399 87.351097 21.457701 249 249 179
58.151299 87.351097 21.435900 249 249 179
54.192101 87.362900 16.566000 249 249 179
54.494202 87.362198 16.541401 249 249 179
54.024601 87.360603 16.247601 249 249 179
54.210300 87.361397 16.275299 249 249 179
54.268902 87.360802 16.287399 249 249 179
54.666100 87.364098 16.826500 249 249 179
52.664799 87.354103 15.376200 249 249 179
52.368500 87.350304 15.020400 249 249 179
53.208900 87.358597 15.695300 249 249 179
53.584702 87.360603 16.229799 249 249 179
53.838100 87.360100 16.104900 249 249 179
53.473099 87.359497 15.900000 249 249 179
53.646999 87.358398 15.832900 249 249 179
53.893299 87.359100 15.977600 249 249 179
54.104000 87.359901 16.048201 249 249 179
53.886101 87.358597 15.804100 249 249 179
54.943699 87.363503 16.830799 249 249 179
54.924801 87.361900 16.499701 249 249 179
55.196301 87.364899 16.939301 249 249 179
55.121300 87.361900 16.550501 249 249 179
55.287201 87.364799 17.125299 249 249 179
55.306198 87.365700 17.216400 249 249 179
52.841000 87.356003 15.543000 249 249 179
52.755600 87.353600 15.266100 249 249 179
52.614201 87.352798 15.218700 249 249 179
52.823200 87.353203 15.126500 249 249 179
52.532902 87.352097 15.096300 249 249 179
53.160599 87.355202 15.372700 249 249 179
52.396500 87.348801 14.744300 249 249 179
52.307800 87.346199 14.575300 249 249 179
52.761101 87.349899 14.803700 249 249 179
52.637299 87.348000 14.698000 249 249 179
52.713699 87.348503 14.584300 249 249 179
42.835899 87.248398 12.466500 249 249 179
42.447201 87.242401 12.466000 249 249 179
44.249802 87.266098 12.338300 249 249 179
44.057701 87.264603 12.374900 249 249 179
43.996300 87.263802 12.401500 249 249 179
44.523602 87.268997 12.297200 249 249 179
43.754501 87.259804 12.416300 249 249 179
43.535301 87.257599 12.460500 249 249 179
43.833000 87.260399 12.251200 249 249 179
43.355801 87.252296 12.161800 249 249 179
43.845200 87.259300 12.159400 249 249 179
43.251900 87.250504 12.100000 249 249 179
43.403198 87.251900 12.008600 249 249 179
43.851799 87.258102 12.013300 249 249 179
44.494301 87.267303 12.164200 249 249 179
44.625801 87.268898 12.251200 249 249 179
44.913101 87.273804 12.438000 249 249 179
44.833099 87.270500 12.236700 249 249 179
45.020500 87.272301 12.234300 249 249 179
45.253799 87.276497 12.389400 249 249 179
46.651299 87.289101 12.404900 249 249 179
45.452499 87.277496 12.246000 249 249 179
45.299999 87.275803 12.284700 249 249 179
45.141399 87.274002 12.269300 249 249 179
45.525700 87.275803 11.987900 249 249 179
45.184101 87.272202 12.044500 249 249 179
45.191002 87.271797 11.990700 249 249 179
45.287498 87.272598 11.954600 249 249 179
46.116501 87.280197 12.049900 249 249 179
46.022900 87.278603 11.922900 249 249 179
45.792099 87.276497 11.892600 249 249 179
46.210400 87.279602 11.884500 249 249 179
45.611599 87.274902 11.875600 249 249 179
45.450298 87.271698 11.798500 249 249 179
45.941799 87.277298 11.815200 249 249 179
42.990700 87.247498 12.129300 249 249 179
41.714298 87.230499 12.577300 249 249 179
41.823502 87.231003 12.420900 249 249 179
47.773899 87.302200 12.806800 249 249 179
47.803501 87.301804 12.756900 249 249 179
47.336102 87.294601 12.472400 249 249 179
47.303398 87.293198 12.391100 249 249 179
46.849098 87.287102 12.109900 249 249 179
48.297199 87.304398 12.845500 249 249 179
47.837101 87.298798 12.580300 249 249 179
41.114700 87.218903 12.537900 249 249 179
40.902901 87.214897 12.618400 249 249 179
40.805500 87.213699 12.639400 249 249 179
42.058601 87.232903 12.129000 249 249 179
42.373501 87.238701 12.143800 249 249 179
42.734699 87.243896 12.098300 249 249 179
42.899899 87.246498 12.082600 249 249 179
42.447201 87.237602 11.911800 249 249 179
44.425598 87.263802 12.005500 249 249 179
39.343300 87.176697 13.294500 249 249 179
39.708401 87.197800 13.207000 249 249 179
39.339500 87.175400 13.206700 249 249 179
39.571999 87.194099 13.160400 249 249 179
39.728699 87.197403 13.154100 249 249 179
39.376999 87.181801 13.170600 249 249 179
39.421902 87.189201 13.017000 249 249 179
39.391899 87.182999 12.895700 249 249 179
39.239101 87.154099 12.904200 249 249 179
39.241600 87.153702 12.868600 249 249 179
40.461700 87.207603 12.660100 249 249 179
40.249699 87.202003 12.563100 249 249 179
40.369701 87.202904 12.469100 249 249 179
40.513401 87.205803 12.459700 249 249 179
39.719101 87.193001 12.675400 249 249 179
40.884201 87.212601 12.456000 249 249 179
40.962601 87.213799 12.358100 249 249 179
40.740501 87.208298 12.307900 249 249 179
38.138000 86.950302 13.164300 249 249 179
38.394100 86.998398 13.198800 249 249 179
38.642502 87.043602 13.119100 249 249 179
37.987000 86.921402 13.026000 249 249 179
47.137402 87.289902 12.163500 249 249 179
47.304100 87.292099 12.273600 249 249 179
46.632599 87.281303 11.773100 249 249 179
47.498402 87.292503 12.238900 249 249 179
48.026402 87.300003 12.524600 249 249 179
47.624401 87.293602 12.227300 249 249 179
47.832802 87.293098 12.103100 249 249 179
47.186901 87.286201 11.917300 249 249 179
47.229599 87.284897 11.757000 249 249 179
50.763199 87.332603 13.928300 249 249 179
51.206402 87.336502 14.042400 249 249 179
51.137699 87.334801 13.961600 249 249 179
50.275200 87.329399 13.961900 249 249 179
50.371498 87.329300 13.817100 249 249 179
50.189800 87.328598 13.894700 249 249 179
49.579102 87.320999 13.542300 249 249 179
49.400902 87.314400 12.984000 249 249 179
50.534199 87.329102 13.704600 249 249 179
49.909698 87.320801 13.314900 249 249 179
48.512299 87.306602 12.928000 249 249 179
48.809700 87.307800 12.875800 249 249 179
48.555199 87.305199 12.738500 249 249 179
48.357201 87.304001 12.735300 249 249 179
48.470901 87.302101 12.526100 249 249 179
49.016499 87.307602 12.635000 249 249 179
48.405800 87.300499 12.376400 249 249 179
48.154301 87.300400 12.472500 249 249 179
49.214100 87.307800 12.616200 249 249 179
48.938599 87.304001 12.356700 249 249 179
49.112301 87.305496 12.415400 249 249 179
49.531399 87.313599 12.878000 249 249 179
49.633099 87.314598 12.857200 249 249 179
49.552399 87.313103 12.765900 249 249 179
49.950699 87.317703 13.043400 249 249 179
50.280998 87.325798 13.527800 249 249 179
50.196602 87.323799 13.485700 249 249 179
50.878601 87.331100 13.776600 249 249 179
50.895302 87.330002 13.696700 249 249 179
52.358601 87.344299 14.283500 249 249 179
51.925499 87.340103 14.090300 249 249 179
51.964001 87.340401 14.002900 249 249 179
51.476101 87.334801 13.783900 249 249 179
51.528900 87.335602 13.775000 249 249 179
51.931198 87.338097 13.893800 249 249 179
51.613499 87.335503 13.751500 249 249 179
51.831001 87.337196 13.762100 249 249 179
51.359402 87.333099 13.712800 249 249 179
51.514000 87.334602 13.661300 249 249 179
52.624500 87.345200 14.353100 249 249 179
52.274601 87.340401 13.993900 249 249 179
52.174099 87.339798 13.869800 249 249 179
52.363201 87.340599 13.896700 249 249 179
57.815300 87.102501 34.119701 249 249 179
57.848000 87.057503 34.362900 249 249 179
59.125301 87.292900 27.589701 249 249 179
59.257301 87.278397 28.699900 249 249 179
59.391701 87.281403 28.474300 249 249 179
59.274799 87.268997 29.437201 249 249 179
58.997002 87.295998 27.243401 249 249 179
59.121201 87.295898 27.308100 249 249 179
59.295200 87.292397 27.501699 249 249 179
59.235500 87.294197 27.333099 249 249 179
59.368900 87.285004 28.170500 249 249 179
59.413601 87.283501 28.167000 249 249 179
59.391998 87.280899 28.446699 249 249 179
59.157799 87.296997 27.142099 249 249 179
59.120098 87.300102 26.764700 249 249 179
59.438599 87.280403 28.549299 249 249 179
59.477100 87.271599 29.197300 249 249 179
59.498600 87.271004 29.173000 249 249 179
59.413399 87.289703 27.710199 249 249 179
59.282600 87.296303 27.016500 249 249 179
59.456100 87.295303 27.154600 249 249 179
59.312599 87.298103 26.928200 249 249 179
59.281502 87.266098 29.683599 249 249 179
58.908600 87.241402 31.375799 249 249 179
59.142502 87.243401 31.133699 249 249 179
59.238800 87.248100 30.832800 249 249 179
59.185299 87.243896 31.065599 249 249 179
58.939701 87.231300 31.861200 249 249 179
59.402000 87.247902 30.795000 249 249 179
59.332001 87.236900 31.437500 249 249 179
59.216499 87.230598 31.789499 249 249 179
59.583302 87.245201 30.829100 249 249 179
59.620499 87.248596 30.646601 249 249 179
59.644402 87.251297 30.478300 249 249 179
59.559799 87.254700 30.278799 249 249 179
59.471001 87.269402 29.370600 249 249 179
59.605400 87.279701 28.419001 249 249 179
59.572399 87.281197 28.309000 249 249 179
59.733002 87.256599 30.057301 249 249 179
59.833199 87.250801 30.332800 249 249 179
58.564602 87.221901 32.580101 249 249 179
58.824501 87.222198 32.496700 249 249 179
58.846401 87.220497 32.539902 249 249 179
58.889099 87.218002 32.672501 249 249 179
58.945000 87.219200 32.598701 249 249 179
59.287601 87.229202 31.860100 249 249 179
57.183300 86.956902 34.920399 249 249 179
57.071602 86.897903 35.117802 249 249 179
57.584000 86.997200 34.695400 249 249 179
58.288300 87.161697 33.771099 249 249 179
58.533401 87.208099 33.313099 249 249 179
58.463600 87.184303 33.638699 249 249 179
58.677898 87.203796 33.486000 249 249 179
58.729599 87.202003 33.509499 249 249 179
58.832298 87.157997 33.755100 249 249 179
58.789501 87.132599 33.896301 249 249 179
58.000801 87.009804 34.610802 249 249 179
57.338200 86.858498 35.182800 249 249 179
38.857201 87.082298 12.870800 249 249 179
38.779202 87.067101 12.844700 249 249 179
38.667900 87.045303 12.804600 249 249 179
38.001099 86.922302 12.829900 249 249 179
38.645000 87.040298 12.681800 249 249 179
38.574699 87.026604 12.605500 249 249 179
56.279900 87.371803 18.385401 249 249 179
56.397701 87.371498 18.358101 249 249 179
56.496101 87.369797 18.045900 249 249 179
56.922699 87.366997 18.741100 249 249 179
57.161598 87.365997 19.135201 249 249 179
57.191002 87.365700 19.299200 249 249 179
57.209301 87.365303 19.236401 249 249 179
57.063301 87.366302 18.669300 249 249 179
56.124599 87.369202 17.828199 249 249 179
56.153400 87.367996 17.688101 249 249 179
56.245701 87.368401 17.651501 249 249 179
56.005798 87.366501 17.447800 249 249 179
55.831799 87.366402 17.398199 249 249 179
55.985500 87.365196 17.288099 249 249 179
57.426701 87.364998 19.466801 249 249 179
57.626099 87.362503 19.822300 249 249 179
57.701099 87.364197 19.679600 249 249 179
57.607601 87.364098 19.346201 249 249 179
56.971699 87.367104 18.477200 249 249 179
56.636600 87.369598 18.055000 249 249 179
56.804501 87.368401 18.113300 249 249 179
56.901501 87.368202 18.174601 249 249 179
54.581001 87.359200 16.169500 249 249 179
54.850300 87.359901 16.218000 249 249 179
54.482800 87.359497 16.094700 249 249 179
56.222698 87.365799 17.344400 249 249 179
56.407200 87.367302 17.579700 249 249 179
55.489300 87.362503 16.771400 249 249 179
55.680901 87.362396 16.871799 249 249 179
55.402599 87.358803 16.303301 249 249 179
55.279301 87.358299 16.220400 249 249 179
57.914501 87.353798 21.189301 249 249 179
58.032200 87.353104 21.106300 249 249 179
58.108299 87.353203 21.172899 249 249 179
58.262699 87.352798 21.139299 249 249 179
58.305302 87.352997 20.780500 249 249 179
57.900700 87.361298 19.998699 249 249 179
58.127201 87.356598 20.378401 249 249 179
58.461201 87.350502 21.112900 249 249 179
58.505402 87.350304 21.121700 249 249 179
58.544498 87.351196 21.151400 249 249 179
58.633400 87.347099 21.641199 249 249 179
58.602901 87.341698 22.261101 249 249 179
58.677200 87.343300 22.005199 249 249 179
58.681599 87.342201 22.202700 249 249 179
58.569698 87.350998 21.106800 249 249 179
58.524502 87.351402 20.873501 249 249 179
58.360500 87.353203 20.605801 249 249 179
58.628700 87.349899 21.112101 249 249 179
59.084099 87.335098 23.030100 249 249 179
59.294399 87.330002 23.393900 249 249 179
59.284100 87.326302 23.787701 249 249 179
59.385601 87.312798 25.122000 249 249 179
59.378399 87.326302 23.747601 249 249 179
59.676201 87.319801 24.023001 249 249 179
59.488602 87.311897 25.102900 249 249 179
59.767101 87.311096 24.929100 249 249 179
59.889599 87.312302 24.694599 249 249 179
59.089699 87.335602 22.830700 249 249 179
59.068901 87.337502 22.693899 249 249 179
59.440300 87.326401 23.724701 249 249 179
59.132500 87.334396 22.981100 249 249 179
59.183601 87.333801 23.069201 249 249 179
59.099400 87.337601 22.593300 249 249 179
58.975899 87.338997 22.499399 249 249 179
59.571400 87.330200 23.075001 249 249 179
59.759499 87.320099 24.037300 249 249 179
59.372700 87.309402 25.487499 249 249 179
59.562500 87.309402 25.314400 249 249 179
59.676899 87.305000 25.809200 249 249 179
59.702999 87.303902 25.803400 249 249 179
59.704700 87.308601 25.233200 249 249 179
59.363098 87.301399 26.352501 249 249 179
59.502899 87.301102 26.347000 249 249 179
59.198898 87.300201 26.601400 249 249 179
59.862999 87.303497 25.693600 249 249 179
57.820499 87.362900 19.543301 249 249 179
57.705898 87.363297 19.314400 249 249 179
57.541698 87.364304 19.103001 249 249 179
57.419201 87.363602 18.740400 249 249 179
58.138699 87.358299 19.996401 249 249 179
58.799301 87.344200 21.913300 249 249 179
59.089001 87.344299 21.654800 249 249 179
59.287498 87.338402 22.354601 249 249 179
54.158501 87.358803 15.949600 249 249 179
54.514900 87.357697 15.980900 249 249 179
54.500702 87.356796 15.851800 249 249 179
54.477402 87.357498 15.843100 249 249 179
54.209999 87.357002 15.795100 249 249 179
54.620602 87.356499 15.707500 249 249 179
52.994900 87.353302 15.027600 249 249 179
53.093601 87.352203 14.916100 249 249 179
53.127102 87.352600 14.925200 249 249 179
53.347801 87.355301 15.408100 249 249 179
53.385799 87.356598 15.463300 249 249 179
53.404701 87.354500 15.191900 249 249 179
53.792099 87.356796 15.505700 249 249 179
54.077599 87.353203 15.251600 249 249 179
54.337799 87.354599 15.378100 249 249 179
55.259800 87.358200 16.183100 249 249 179
55.118599 87.357803 15.971900 249 249 179
54.938599 87.356201 15.832500 249 249 179
55.920399 87.361504 16.811399 249 249 179
55.473900 87.356903 15.965000 249 249 179
55.950001 87.362503 16.827299 249 249 179
53.820499 87.353104 15.130100 249 249 179
52.948299 87.347504 14.419700 249 249 179
53.186501 87.349503 14.542900 249 249 179
53.195999 87.348000 14.392800 249 249 179
53.029701 87.344803 14.122900 249 249 179
52.782902 87.343102 13.987700 249 249 179
42.724701 87.240303 11.839400 249 249 179
42.662300 87.238800 11.809500 249 249 179
44.443901 87.260399 11.651400 249 249 179
43.384998 87.247498 11.723800 249 249 179
43.589001 87.247200 11.478300 249 249 179
43.792702 87.250702 11.548800 249 249 179
42.801998 87.238998 11.649800 249 249 179
43.753101 87.249100 11.467100 249 249 179
43.974602 87.252296 11.482100 249 249 179
43.914902 87.250000 11.362100 249 249 179
44.688900 87.262100 11.608700 249 249 179
46.417500 87.278603 11.693500 249 249 179
45.942799 87.275299 11.740000 249 249 179
46.037201 87.276398 11.685900 249 249 179
45.935200 87.272499 11.541000 249 249 179
45.960999 87.272903 11.533300 249 249 179
46.195400 87.272903 11.312400 249 249 179
45.848900 87.268097 11.214000 249 249 179
46.634499 87.276802 11.388400 249 249 179
46.657299 87.276703 11.392100 249 249 179
46.750301 87.278297 11.445100 249 249 179
46.828098 87.280098 11.542600 249 249 179
45.553699 87.265198 11.180400 249 249 179
45.442799 87.263496 11.145400 249 249 179
42.834400 87.237099 11.427100 249 249 179
41.311901 87.216499 11.959800 249 249 179
41.362301 87.216698 11.892400 249 249 179
41.069302 87.213402 12.118800 249 249 179
41.960201 87.225700 11.713200 249 249 179
41.909302 87.223099 11.614000 249 249 179
41.452301 87.215302 11.654800 249 249 179
48.161900 87.299301 12.367800 249 249 179
48.278099 87.300003 12.352800 249 249 179
46.796101 87.277901 11.422900 249 249 179
48.103001 87.295601 12.162600 249 249 179
48.161301 87.296303 12.173200 249 249 179
40.855801 87.210098 12.158800 249 249 179
40.701599 87.206902 12.227400 249 249 179
40.679001 87.205803 12.110900 249 249 179
40.351101 87.201302 12.317300 249 249 179
40.185101 87.200203 12.451600 249 249 179
42.135899 87.227501 11.589100 249 249 179
42.337002 87.232002 11.624200 249 249 179
42.025200 87.224098 11.499200 249 249 179
42.139301 87.226303 11.473000 249 249 179
42.037601 87.223396 11.429000 249 249 179
42.976601 87.237198 11.328700 249 249 179
43.035599 87.238098 11.271900 249 249 179
42.092800 87.221298 11.217100 249 249 179
39.370399 87.175598 12.582000 249 249 179
39.778900 87.191498 12.447900 249 249 179
38.881802 87.084702 12.658300 249 249 179
39.113300 87.125702 12.458000 249 249 179
39.132500 87.129303 12.420800 249 249 179
38.978298 87.099800 12.369400 249 249 179
38.964699 87.097702 12.335500 249 249 179
40.193100 87.197098 12.170100 249 249 179
39.998299 87.194504 12.242800 249 249 179
40.598900 87.203796 12.018000 249 249 179
39.896301 87.191902 12.245500 249 249 179
39.832699 87.191902 12.319100 249 249 179
39.708302 87.186897 12.124200 249 249 179
39.383701 87.174202 12.134700 249 249 179
40.843300 87.204903 11.804900 249 249 179
40.375900 87.196404 11.797800 249 249 179
37.957699 86.912697 12.725100 249 249 179
37.989300 86.918503 12.687200 249 249 179
37.793999 86.842201 12.805000 249 249 179
37.828098 86.862000 12.677900 249 249 179
37.843800 86.871300 12.664000 249 249 179
38.570400 87.024498 12.410800 249 249 179
37.924301 86.904198 12.378000 249 249 179
47.537201 87.286598 11.694500 249 249 179
47.765999 87.289703 11.810500 249 249 179
47.877300 87.290199 11.832300 249 249 179
46.935699 87.278000 11.339200 249 249 179
47.003101 87.277000 11.188900 249 249 179
48.452999 87.297997 12.139800 249 249 179
48.198002 87.293297 11.862800 249 249 179
48.391899 87.292999 11.802800 249 249 179
47.335098 87.278702 11.168100 249 249 179
47.160198 87.276001 11.068000 249 249 179
50.935101 87.331001 13.685000 249 249 179
50.862099 87.328300 13.500300 249 249 179
51.181999 87.332298 13.689000 249 249 179
50.724098 87.327400 13.420500 249 249 179
50.771198 87.326599 13.361200 249 249 179
51.447601 87.333801 13.617700 249 249 179
51.429798 87.332497 13.566800 249 249 179
51.600498 87.334099 13.578600 249 249 179
