ply
format ascii 1.0
comment author: F. Lafarge
element vertex 1179
property float x
property float y
property float z
property uchar red
property uchar green
property uchar blue
end_header
-0.985637 0.089328 -0.987442 131 163 172
-0.989884 -0.885867 -0.099483 180 255 161
-1.004930 -0.881505 -0.109732 180 255 161
0.136842 1.012440 0.898152 208 174 210
0.107560 0.996387 0.890278 208 174 210
0.897597 0.995958 0.112615 237 155 245
0.899172 1.003250 0.125306 237 155 245
0.951938 1.009710 -0.043820 156 243 207
-0.992796 1.007120 -0.075627 145 163 208
-0.897441 1.005470 -0.022438 182 214 165
-0.907093 1.004110 -0.030014 182 214 165
-0.906491 0.981441 -0.042242 182 214 165
-0.852048 1.001460 -0.048864 182 214 165
-0.848658 0.996463 -0.073325 182 214 165
-0.840065 1.016710 -0.068128 182 214 165
-0.993607 0.102266 -0.009269 145 238 189
-1.008730 0.097068 -0.009480 145 238 189
0.968320 -0.989992 -0.127920 187 228 161
1.011840 -0.097057 0.035761 144 221 240
1.015400 -0.095091 0.033317 144 221 240
0.999504 -0.091770 0.045538 144 221 240
0.984354 -0.093767 0.037722 144 221 240
1.014080 -0.142653 0.071007 144 221 240
0.985731 -0.099779 0.008177 253 152 167
0.995048 0.048050 0.093312 150 241 148
0.991875 0.000918 0.110843 150 241 148
1.003860 -0.025275 0.112541 150 241 148
1.016250 0.020793 0.061847 204 251 238
0.992128 0.009264 0.057696 204 251 238
0.011982 -0.990668 -0.091262 184 234 143
0.001967 -1.012370 0.895936 246 160 192
0.087723 -0.997827 0.976974 158 130 229
0.096164 -0.956286 0.995535 158 130 229
0.078484 -1.018760 1.011620 222 231 242
-0.942321 -0.990699 -0.042379 164 248 186
-0.988595 -0.916911 -0.046372 224 255 208
1.014090 -0.035711 -0.089813 151 224 187
0.999160 -0.035973 -0.135926 183 226 136
0.995595 0.001588 -0.098054 173 235 211
0.990092 0.019085 -0.102327 173 235 211
1.017760 0.014058 -0.119959 173 235 211
0.992040 -0.033627 -0.140578 173 235 211
0.993973 -0.105885 -0.059428 141 192 254
0.983301 -0.083811 -0.043478 170 149 222
0.998566 -0.024386 0.051309 193 227 221
1.006410 -0.030395 0.047373 193 227 221
0.996093 -0.024992 0.032745 193 227 221
1.001920 -0.042865 0.040507 193 227 221
1.009120 0.003749 0.009123 193 227 221
0.982732 -0.117457 0.896307 237 187 147
1.004740 -0.098056 0.889158 237 187 147
1.003050 -0.099527 0.915354 237 187 147
-1.011740 0.026220 0.052741 175 234 222
-0.044547 0.469243 -1.007340 169 141 252
-0.025317 0.471771 -0.994028 169 141 252
-0.017345 0.493894 -1.004680 169 141 252
-0.877739 0.988487 -0.594412 184 133 173
-0.926783 1.005110 -0.482993 186 173 215
-0.972447 1.009350 -0.497257 186 173 215
-0.973571 0.999147 -0.451190 178 192 200
-0.966776 1.015250 -0.446129 178 192 200
0.891979 0.453810 -1.005270 173 158 226
0.987287 0.478019 -0.955701 203 159 143
0.593398 0.497140 -0.985480 211 157 182
1.015960 0.983028 -0.462741 227 244 206
1.000950 0.982551 -0.483353 227 244 206
0.484313 -0.396823 -1.017980 141 209 133
0.416261 -0.985570 -1.005050 201 154 205
0.416123 -0.990003 -0.998141 201 154 205
0.474360 -1.005610 -0.979427 252 141 226
0.606872 -0.975445 -1.013300 234 198 139
0.589020 -0.991342 -0.995021 247 154 212
0.894090 -1.005180 -0.567815 165 143 166
0.861857 -0.985274 -0.569304 165 143 166
0.877964 -0.999322 -0.609906 165 143 166
-1.007750 -0.436202 -0.976942 248 240 248
-1.004860 -0.472855 -0.983192 212 215 209
-1.005180 -0.974961 -0.483201 206 145 221
-0.051257 0.983418 0.467663 213 252 180
-0.109100 0.986177 0.489691 213 252 180
0.894284 0.995101 0.477228 134 135 194
0.878135 0.989157 0.489331 134 135 194
0.872494 0.998527 0.479942 134 135 194
0.880379 1.014790 0.467168 134 135 194
0.929844 0.991637 0.491603 134 135 194
0.579693 1.009640 0.533011 181 166 189
0.600966 1.016150 0.513469 181 166 189
0.608435 0.991243 0.476353 181 166 189
0.455808 1.018060 0.600622 221 137 172
0.454038 0.989762 0.583035 221 137 172
1.005650 0.567037 0.459748 134 198 192
0.985869 0.557540 0.459370 134 198 192
0.985853 0.457244 0.387953 226 201 204
0.548130 1.000770 -0.130473 138 146 200
0.459261 1.007250 -0.873069 148 167 192
0.395885 1.018870 -0.928126 222 183 210
0.455815 0.990064 -0.954922 188 220 218
-1.017180 0.993089 -0.600025 229 184 200
-0.998594 0.450911 -0.394895 234 186 203
-0.996916 0.467183 -0.403583 234 186 203
-1.001660 0.483493 -0.400059 234 186 203
-0.982529 0.498462 -0.427523 234 186 203
-0.986669 0.483120 -0.481659 234 186 203
-0.999974 0.512774 -0.495667 234 186 203
0.981711 -0.950472 -0.390421 178 139 154
0.895514 -0.986679 -0.548124 157 242 174
0.483783 -1.001610 0.356672 131 187 220
0.483790 -0.983922 0.393781 186 221 185
0.482661 -0.981709 0.396002 186 221 185
0.500043 -1.007460 0.081019 144 224 213
0.553372 -0.988496 0.023529 142 164 192
0.527207 -1.007780 0.015241 142 164 192
0.503051 -1.016630 0.054389 142 164 192
0.415821 -0.990420 0.971820 195 143 142
0.401390 -1.003340 1.014200 154 182 140
0.394408 -0.966656 0.999114 154 182 140
0.450781 -0.965878 1.000730 154 182 140
0.454398 -0.954897 0.991682 154 182 140
0.597964 -0.988880 0.996458 248 158 176
0.590401 -0.969592 1.012430 248 158 176
0.425323 -1.008190 0.906035 149 244 202
0.410178 -0.989741 0.909211 149 244 202
-1.009090 -0.607468 0.465652 181 139 133
-1.015150 -0.608805 0.466346 181 139 133
-0.986156 -0.603565 0.467346 181 139 133
0.992541 0.402010 1.001440 251 140 198
1.005920 0.349316 1.015850 251 140 198
0.966050 0.346911 1.011420 251 140 198
1.002770 0.604976 0.983013 163 252 181
-0.996790 -0.405102 0.419058 236 158 147
-1.010300 -0.405096 0.417460 236 158 147
-1.009220 -0.434604 0.464452 206 180 230
-0.995997 -0.392293 0.983059 153 252 235
-1.001100 -0.381137 0.978424 153 252 235
-0.985588 -0.386660 1.006110 153 252 235
-0.998368 -0.398912 1.005630 194 215 196
0.609090 0.944923 -0.993572 186 167 164
0.583821 0.978148 -1.008940 186 167 164
0.512725 0.889963 -1.016990 162 196 156
0.514962 0.896063 -0.991049 162 196 156
0.516171 0.915293 -1.000460 162 196 156
0.096104 0.426187 -0.988415 152 238 218
0.095689 0.418667 -0.982510 152 238 218
0.107274 0.406524 -1.012010 152 238 218
0.127635 0.439828 -0.996524 152 238 218
0.124779 0.406533 -1.006220 152 238 218
0.122923 0.410040 -1.015240 152 238 218
0.101587 0.391862 -1.018010 152 238 218
0.548613 -0.076517 -1.015340 213 142 212
-0.398782 0.998044 -0.078836 161 131 187
-0.415185 0.991327 -0.072612 161 131 187
-0.340271 0.992633 -0.094940 161 131 187
-0.088357 1.009410 -0.450215 214 215 137
-0.054804 0.991191 -0.514535 240 228 179
-0.077352 0.987437 -0.514937 240 228 179
-0.082633 1.011550 -0.545284 240 228 179
-0.100645 1.014120 -0.527108 240 228 179
-0.112971 1.001690 -0.569068 240 228 179
-0.131501 1.015490 -0.524099 240 228 179
-0.888529 1.011760 0.452920 245 238 208
-0.912720 0.986967 0.439357 245 238 208
-0.903459 1.012840 0.411502 245 238 208
-0.939289 1.009450 0.524952 240 216 229
-0.971894 1.010890 0.515028 240 216 229
-0.889086 0.993539 0.531969 240 216 229
-0.845196 0.991831 0.517941 240 216 229
0.898416 -0.482075 -0.982748 145 246 162
0.842955 -0.486318 -1.007200 145 246 162
0.998854 -0.565709 -0.985874 141 190 245
0.973037 -0.555320 -1.001310 154 130 142
1.017790 -0.101215 -0.611276 156 162 139
1.018300 -0.098989 -0.609303 156 162 139
0.425524 0.548004 -0.999244 198 175 159
1.012970 0.129256 -0.425018 189 222 255
0.988982 0.141719 -0.422218 189 222 255
1.005670 0.081987 -0.421559 189 222 255
1.000780 0.036784 -0.552296 190 171 222
0.981655 0.030009 -0.558210 190 171 222
0.988188 0.591295 0.074092 182 185 244
1.007100 0.561759 0.055319 182 185 244
0.010756 0.612509 -1.008400 220 218 220
-0.093997 0.543706 -1.017460 206 215 245
-0.099739 0.546662 -1.012180 206 215 245
-0.482637 -0.110496 -1.013140 172 171 164
-0.077351 -0.986029 -0.578072 249 225 247
-0.061419 -1.001770 -0.475118 133 185 183
-0.058001 -1.004500 -0.484977 133 185 183
0.102968 -0.450802 -0.982135 199 193 248
0.079417 -0.461630 -0.995919 199 193 248
0.071357 -0.468306 -0.997867 199 193 248
0.481498 -0.998389 0.047317 181 193 181
0.021460 -1.002560 -0.563331 239 207 239
-0.923081 0.543556 -1.002630 176 159 238
-0.974490 0.558484 -1.008470 201 245 174
-0.981255 -0.370150 -0.100821 168 133 136
-1.004820 -0.376234 -0.126787 168 133 136
-1.014680 -0.391585 -0.099024 168 133 136
-1.016320 -0.438536 0.030827 206 164 180
-1.012020 -0.131020 -0.424119 134 163 232
-0.982620 -0.103456 -0.407603 134 179 239
-0.983366 -0.080967 -0.385187 134 179 239
-0.984157 -0.040103 -0.550456 182 151 184
0.575737 1.001660 0.947790 151 196 177
0.568311 1.001290 0.952808 151 196 177
0.620750 0.988124 0.942157 151 196 177
0.636391 1.011990 0.994007 151 196 177
0.377715 1.006090 0.104304 137 212 133
0.413333 0.987737 0.065967 137 212 133
0.088041 0.996014 0.399902 182 181 169
0.073202 1.000740 0.408657 182 181 169
0.913190 1.016300 -0.402046 191 149 207
0.924101 0.989029 -0.424422 191 149 207
0.941129 1.015400 -0.435094 191 149 207
0.898690 0.998638 -0.361881 191 149 207
0.954683 0.990304 -0.424996 191 149 207
0.936234 0.992634 -0.357865 191 149 207
0.887336 1.000800 -0.349300 191 149 207
0.887167 0.985442 -0.351556 191 149 207
0.872233 1.012340 -0.335470 191 149 207
0.865738 1.007620 -0.338559 191 149 207
0.997032 0.577653 -0.546995 192 182 172
0.981566 0.623468 -0.546372 192 182 172
1.007170 0.607569 -0.513556 132 164 140
0.981982 0.434027 -0.604690 211 178 236
1.008430 0.388771 -0.614929 211 178 236
0.984830 0.346625 -0.591381 211 178 236
0.991634 0.391231 -0.461649 154 195 158
0.981132 0.382764 -0.462631 154 195 158
1.012540 0.549087 -0.406358 226 143 202
1.013210 0.549803 -0.408217 226 143 202
1.011220 0.562433 -0.367490 226 143 202
0.027472 0.998713 -0.591822 194 226 166
0.031213 1.001240 -0.595012 194 226 166
0.025514 1.001630 -0.623363 194 226 166
-0.097801 0.984487 -0.450767 172 236 250
-0.157671 0.984149 -0.449126 172 236 250
-0.172196 1.008440 -0.436230 172 236 250
-0.997756 1.016430 0.402263 130 225 227
-1.000400 1.005050 0.382823 130 225 227
-0.986420 0.468893 0.589836 253 195 214
-1.000140 0.486880 0.593826 253 195 214
-1.016410 0.524722 0.587428 253 195 214
-0.454314 0.986930 -0.632640 200 192 157
-0.494558 1.011890 -0.592314 194 139 161
-0.403898 1.007890 -0.554603 228 247 163
-0.399501 1.011010 -0.572023 228 247 163
-0.420183 0.997392 -0.462370 182 175 185
-0.527150 0.985832 -0.418234 219 156 248
-1.017900 0.092943 0.524575 148 214 159
-1.017710 -0.022456 0.585392 217 214 143
0.888645 -1.013440 0.485226 203 193 246
0.913245 -1.015560 0.470045 203 193 246
0.889546 -1.017930 0.450746 203 193 246
1.013770 -0.587613 0.486317 191 221 195
1.005490 -0.580260 0.440107 191 221 195
1.012170 -0.457603 0.583320 154 140 239
0.985254 -0.444306 0.598225 154 140 239
1.013210 -0.419353 0.589207 154 140 239
1.016440 -0.087256 0.524959 237 188 161
1.015080 -0.091506 0.517986 237 188 161
0.984279 -0.102544 0.528099 237 188 161
0.986393 -0.074230 0.504613 237 188 161
1.007690 -0.030597 0.504914 237 188 161
0.997105 -0.419387 0.465588 136 148 152
1.000020 -0.514914 0.405533 156 151 170
-0.513120 -0.987354 -0.610827 144 255 224
-0.511705 -0.995732 -0.600570 144 255 224
-0.417160 -0.991595 -0.503931 229 150 170
-0.421803 -0.997354 -0.504959 229 150 170
-0.561412 -0.987111 -0.583905 134 155 173
-0.512781 -0.984786 -0.135741 205 133 148
-0.063867 -1.013500 -0.578820 147 223 140
0.026421 -0.983913 -0.384824 136 208 252
-0.510006 -1.015630 0.105283 203 159 163
-0.391550 -1.010230 0.080502 231 227 238
-0.393718 -1.011580 0.090588 231 227 238
-0.377599 -1.011910 0.086901 231 227 238
-0.410757 -1.009670 0.091844 231 227 238
-0.391703 -0.983082 0.102972 231 227 238
-0.343682 -1.009240 0.042831 231 227 238
-0.634510 -0.995146 0.915307 201 195 215
-0.012419 -0.986772 0.397696 188 144 232
-0.982345 -0.947029 -0.604633 202 131 176
-1.008540 -0.953341 -0.601936 202 131 176
-1.001040 -0.934431 -0.583232 202 131 176
-1.010030 -0.941794 -0.588401 202 131 176
-1.001310 -0.403701 -0.461100 131 233 253
-0.999192 -0.544622 -0.443345 219 171 145
-0.993738 -0.565411 -0.501558 219 171 145
-0.994383 -0.537124 -0.518948 219 171 145
0.998245 -0.554859 -0.575930 160 136 205
1.010260 -0.017950 -0.606102 246 223 201
1.009120 -0.038845 -0.596618 182 229 137
1.017550 -0.084189 -0.530745 182 134 167
1.015600 -0.633331 -0.093881 165 159 248
0.986724 -0.624090 -0.086491 165 159 248
1.013930 -0.501152 -0.093527 130 173 205
1.009440 -0.474018 -0.123273 130 173 205
0.993588 -0.455815 -0.129217 130 173 205
0.987052 -0.464702 0.136230 157 245 244
0.993284 -0.466621 0.121892 157 245 244
1.005500 -0.459570 0.121311 157 245 244
1.015640 -0.428877 0.174407 157 245 244
1.015870 -0.527475 0.873449 161 132 178
1.017410 -0.530621 0.871871 161 132 178
1.004000 -0.531870 0.859816 161 132 178
0.985019 -0.534215 0.879911 161 132 178
0.993231 -0.598866 0.950294 158 180 200
1.013790 -0.579190 0.947689 158 180 200
1.013600 -0.607302 0.980005 158 180 200
0.988664 -0.598983 0.419675 154 220 217
0.998125 -0.579084 0.420256 154 220 217
0.989640 -0.554063 0.436995 154 220 217
1.008360 -0.509369 0.407690 154 220 217
-1.011220 0.606460 -0.530122 193 131 209
-0.994272 0.605411 -0.530516 193 131 209
-0.982350 0.618719 -0.522161 193 131 209
-1.013120 0.627039 -0.572565 193 131 209
-1.000390 0.582660 -0.079309 197 163 167
-0.995479 0.562272 -0.063892 197 163 167
-1.016180 0.553473 0.038618 198 207 240
-1.016180 0.525360 0.031457 218 232 228
-1.005750 0.503393 -0.111877 166 132 143
-0.993410 0.440139 0.041283 201 228 237
-1.011300 0.484279 0.034351 201 228 237
-0.988070 0.541915 0.882232 163 167 220
-1.008440 0.536593 0.884421 163 167 220
-1.003200 0.509898 0.889466 231 162 235
-1.018520 0.599034 0.979680 179 229 237
-1.012830 0.584769 0.417610 147 131 224
-1.005910 0.581524 0.408907 147 131 224
-0.992733 0.607573 0.425509 147 131 224
-1.014620 0.617161 0.437255 147 131 224
-0.623368 0.899272 -0.998079 147 169 200
-0.559802 0.701695 -0.981566 253 134 199
-0.921292 1.017170 -0.764351 231 184 135
1.015320 0.721101 -0.953266 212 223 221
1.013260 0.721465 -0.945419 212 223 221
0.989063 0.693469 -0.952570 212 223 221
0.830162 0.793857 -0.996656 180 189 183
0.863467 0.779060 -1.003430 180 189 183
0.860937 0.749550 -0.992535 180 189 183
0.884556 0.718934 -1.015830 180 189 183
1.005890 0.906884 -0.825830 213 140 136
0.985556 0.908997 -0.809786 213 140 136
1.011670 0.859831 -0.858684 213 140 136
0.714207 -0.636088 -1.018760 138 197 166
0.676275 -0.598257 -0.982774 138 197 166
0.673716 -0.714194 -0.999905 136 218 169
0.672432 -0.707809 -0.997755 136 218 169
0.776637 -0.609839 -0.986124 251 231 233
0.792551 -0.617857 -0.996590 161 193 188
0.773816 -0.605895 -1.018620 161 193 188
0.761155 -0.609123 -1.017060 205 197 144
0.839392 -0.611228 -0.989192 161 241 254
0.734385 -0.861708 -0.989670 244 189 245
0.773346 -0.833287 -1.006200 244 189 245
0.675009 -1.016250 -1.003170 245 246 160
0.673646 -0.891084 -0.985800 150 162 175
-0.766020 -0.833334 -1.000310 188 202 159
-0.808714 -0.808418 -1.009720 188 202 159
-1.015700 -0.919422 -0.758597 208 156 200
-1.004890 -0.916802 -0.784053 208 156 200
-0.998278 -0.922442 -0.704433 198 199 154
-0.588878 0.987325 0.831094 184 207 173
-0.569540 0.988769 0.843358 184 207 173
1.001970 0.956837 0.698001 214 191 172
0.996829 0.999114 0.683187 214 191 172
1.013280 0.842974 0.755700 171 152 252
1.014560 0.841702 0.748925 171 152 252
0.840255 0.995501 -0.575483 177 176 171
0.837265 1.008160 -0.575517 177 176 171
0.699898 1.005400 -0.869375 219 205 247
0.752983 0.988777 -0.894229 203 250 151
0.777614 0.997993 -0.870623 203 250 151
-0.986723 1.003160 -0.649935 208 212 218
-1.001530 1.000920 -0.669525 208 212 218
-0.989491 0.975187 -0.690515 208 212 218
-1.014060 0.965861 -0.683103 208 212 218
-1.010230 0.969136 -0.714691 208 212 218
-0.989872 0.962768 -0.732780 208 212 218
-0.954071 0.982018 -0.703666 147 139 162
-0.977565 0.994622 -0.693626 147 139 162
-1.013890 0.985946 -0.657047 245 193 225
-0.985809 1.012750 -0.845058 215 251 232
-0.912244 0.982758 -0.776219 187 199 169
-1.000610 0.856049 -0.730221 241 199 165
-0.991869 0.846029 -0.723368 241 199 165
-1.008480 0.858892 -0.714536 241 199 165
-1.011560 0.885119 -0.714252 241 199 165
1.006640 -1.002230 -0.668552 164 230 239
1.014470 -1.003140 -0.841124 238 252 223
1.001900 -1.008040 -0.838395 238 252 223
1.010130 -0.822683 -0.718767 153 167 242
0.991822 -0.866444 -0.747447 153 167 242
0.757468 -0.981188 0.657748 251 180 138
0.752456 -0.996154 0.662041 251 180 138
0.785363 -1.018340 0.668309 251 180 138
0.787483 -1.003470 0.643514 169 139 250
0.723569 -0.989239 0.919004 170 139 138
0.719619 -0.996522 0.912233 170 139 138
0.619658 -0.987401 0.950298 224 231 153
0.617888 -0.985154 0.955501 224 231 153
-0.857565 -1.000420 0.790311 211 195 198
-0.871427 -0.996747 0.791932 211 195 198
-0.736310 -0.981688 0.854486 192 175 213
-0.745301 -1.018070 0.844082 192 175 213
-1.014600 -0.856827 0.735990 134 208 175
-0.981736 -0.844965 0.738531 224 145 207
1.015430 0.642388 0.687254 149 133 163
1.007990 0.649683 0.679124 149 133 163
0.986297 0.631268 0.645825 149 133 163
1.009090 0.677029 0.736433 197 251 238
0.990677 0.735779 0.890232 253 187 194
0.992002 0.747455 0.899242 253 187 194
1.008430 0.776847 0.896959 253 187 194
0.996847 0.784570 0.877576 253 187 194
-0.989905 -0.701338 0.859574 133 191 244
-1.008240 -0.717624 0.890688 133 191 244
-1.011880 -0.655467 0.862856 133 191 244
-0.989459 -0.612410 0.971680 180 200 179
-0.997830 -0.649383 0.969307 235 142 146
-0.992294 -0.650450 0.981414 171 174 203
-0.997295 -0.832431 0.998495 147 216 147
-1.017240 -0.830262 0.992045 147 216 147
-1.002760 -0.797805 1.004820 147 216 147
-1.013330 -0.828151 0.939878 147 216 147
-0.957138 -0.768550 1.014300 147 216 147
0.327736 0.917579 -0.996431 130 204 149
0.345767 0.893990 -0.991974 130 204 149
0.392974 0.881831 -0.987999 130 204 149
0.336231 0.997662 -1.011960 141 209 193
0.345323 0.993055 -1.013740 141 209 193
0.398370 0.844460 -1.016750 130 236 194
0.388124 0.828029 -0.985696 130 236 194
0.363901 0.834586 -0.993046 130 236 194
0.102549 0.999036 -0.862057 250 144 173
0.069744 0.996616 -0.733351 226 191 137
0.036615 1.014060 -0.695068 226 191 137
0.669316 0.011489 -1.015050 248 243 240
0.679167 0.001614 -0.983835 248 243 240
0.680898 -0.015477 -1.018040 188 160 220
0.595342 0.189132 -1.012220 141 253 156
0.609110 0.202406 -0.982187 141 253 156
-0.674711 0.989170 0.044793 184 187 202
-0.675124 1.010990 0.023226 184 187 202
-0.731210 0.993565 0.033479 241 189 143
-0.749287 0.983164 0.043400 241 189 143
-0.736310 1.017980 0.057315 241 189 143
-0.760586 0.992578 0.057137 241 189 143
-0.702327 0.990024 -0.009723 241 189 143
-0.761741 0.986521 0.078694 241 189 143
-0.779822 1.015890 0.014998 241 189 143
-0.694651 0.987372 -0.030650 241 189 143
-0.685975 1.009020 -0.015274 241 189 143
-0.675317 1.005880 -0.039570 241 189 143
-0.780091 0.999529 -0.002565 241 189 143
-0.823397 0.992940 0.004530 241 189 143
-0.627942 1.014500 -0.043535 241 189 143
-0.630089 0.981736 -0.155609 227 190 219
-0.580533 0.990706 -0.152307 227 190 219
0.996433 -0.347271 -1.018530 167 150 157
0.891262 -0.214389 -1.001160 138 203 231
1.015320 -0.078328 -0.830339 185 203 186
0.671421 0.294463 -0.988278 161 167 149
0.669213 0.291264 -0.993344 161 167 149
0.676252 0.278421 -1.016020 161 167 149
0.997328 0.691984 0.042904 251 242 239
0.983028 0.911808 0.171563 169 243 238
1.016650 0.936612 0.188468 169 243 238
1.015490 0.862226 0.176510 169 243 238
1.003410 0.846317 0.192994 169 243 238
1.009930 0.869570 0.152165 255 225 203
1.005850 0.855631 0.151460 255 225 203
0.982307 0.845713 0.163927 255 225 203
1.007930 0.822026 0.121994 255 225 203
0.983241 0.910054 0.148738 235 228 241
-0.259817 0.402255 -0.989024 222 228 216
-0.239319 0.410024 -0.982316 222 228 216
-0.172791 0.396832 -1.017900 136 230 159
-0.184680 0.391183 -0.989140 136 230 159
-0.158704 0.344192 -1.015150 136 230 159
-0.170034 0.442328 -0.988154 249 200 184
-0.129461 0.403935 -1.016210 160 222 184
-0.339514 0.077467 -1.018250 248 138 214
-0.339153 0.069596 -1.010690 248 138 214
-0.378145 0.089882 -1.017960 146 169 206
-0.351585 0.071319 -0.987705 146 169 206
-0.328614 0.020641 -0.983370 146 169 206
-0.344871 -0.010199 -1.012680 146 169 206
0.171442 0.257798 -0.998278 205 204 200
0.161045 0.247172 -1.013060 205 204 200
0.139393 0.270688 -0.993263 205 204 200
-0.055118 0.235687 -1.017990 134 201 229
-0.078687 0.226774 -1.001090 134 201 229
-0.350018 -0.696536 -1.004520 148 226 220
-0.290405 -0.992249 -0.986045 164 154 201
-0.290104 -0.986207 -0.962908 164 154 201
-0.276097 -1.009290 -0.976502 164 154 201
-0.116488 -1.008280 -0.843979 144 250 155
-0.114707 -1.009040 -0.846942 144 250 155
0.106004 -0.754546 -1.013990 170 246 146
0.088135 -0.723465 -0.995952 170 246 146
0.096407 -0.682911 -1.005900 170 246 146
-0.018988 -0.642687 -1.006540 186 185 245
-0.001530 -0.650366 -1.013350 186 185 245
-0.000212 -0.664658 -0.997389 186 185 245
0.027294 -0.676409 -0.992087 186 185 245
0.047580 -0.680995 -1.014280 186 185 245
0.183289 -0.770718 -1.000890 243 248 153
0.196748 -0.800101 -1.013990 243 248 153
0.151285 -0.750589 -1.013630 243 248 153
0.217426 -0.736508 -1.015310 243 248 153
0.578037 -1.013130 -0.249524 212 194 250
0.606783 -0.997034 -0.284854 194 242 141
0.625608 -1.005580 -0.286725 194 242 141
0.877892 -0.990066 0.141893 202 180 139
0.874114 -0.988317 0.157174 202 180 139
0.849885 -0.985480 0.168840 202 180 139
0.844233 -1.009560 0.149353 202 180 139
-0.917360 0.271915 -0.985442 214 238 253
-0.987147 0.309411 -0.968180 255 153 203
-1.007160 0.350001 -0.955108 255 153 203
-1.012040 0.280195 -0.959196 190 155 194
-0.639948 -0.012114 -1.012620 145 224 180
-0.638488 -0.034355 -1.008150 145 224 180
-0.633505 -0.035712 -0.993980 145 224 180
-0.638195 -0.025222 -0.982573 145 224 180
-0.603113 -0.189007 -0.986135 213 149 221
-0.992518 -0.867002 0.141487 162 244 213
0.421395 1.001560 0.734438 185 251 209
0.421740 0.990822 0.737310 185 251 209
0.423761 0.992058 0.716820 185 251 209
0.646207 0.994489 0.094690 163 235 186
0.650482 0.996802 0.074871 163 235 186
0.663801 1.010160 -0.007365 175 216 162
0.683252 1.011780 -0.020073 194 139 211
0.583816 0.989291 0.242546 142 206 133
0.556491 1.008430 0.278183 250 222 179
0.907972 0.987387 -0.184619 167 196 166
0.908081 0.995314 -0.178335 167 196 166
0.904812 1.008990 -0.206775 167 196 166
0.918444 1.008270 -0.158721 167 196 166
0.913695 1.015480 -0.239818 167 196 166
0.978626 0.989481 -0.325163 217 220 155
0.997828 1.011540 -0.170631 243 229 164
0.995670 0.993454 -0.156460 243 229 164
0.948594 1.002380 -0.213965 243 229 164
1.001330 0.859100 -0.287367 145 147 247
1.006340 0.709141 -0.341442 155 246 215
0.984334 0.697190 -0.342067 201 133 185
0.984362 0.673563 -0.344003 201 133 185
0.756567 1.003810 0.362294 195 254 131
0.765599 1.010970 0.350963 195 254 131
0.744960 0.984611 0.363805 195 254 131
0.656562 1.009520 0.323587 134 141 248
-0.356961 0.986673 0.314251 222 201 197
-0.373032 1.013140 0.309200 222 201 197
-0.338258 1.017790 0.320044 222 201 197
-0.174430 0.987706 0.413127 146 166 241
-0.138389 1.008860 0.420865 244 181 162
-0.298154 0.982552 0.078528 140 233 224
-0.311984 1.012220 0.118529 140 233 224
-0.328342 1.017130 0.098261 187 191 138
-0.000963 1.007980 -0.352251 239 194 132
-0.014669 1.014890 -0.313681 239 194 132
-0.160200 1.000530 -0.225194 177 229 183
-0.145547 1.018110 -0.252407 177 229 183
-0.993473 0.974401 0.325176 254 175 201
-1.018200 0.964299 0.318693 183 155 249
-1.007110 0.984278 0.321478 183 155 249
-1.009720 0.947411 0.340616 183 155 249
-0.995459 0.804486 0.293751 242 140 186
-1.001190 0.716057 0.375476 226 237 173
-1.007770 0.701510 0.423537 226 237 173
-0.720105 0.988983 -0.391801 240 198 145
-0.733606 0.982832 -0.381884 240 198 145
-0.750605 0.994429 -0.383093 240 198 145
-0.763063 1.011690 -0.329670 185 198 230
-0.774070 1.002180 -0.332040 185 198 230
-0.778310 1.007510 -0.331371 185 198 230
-0.826471 0.984239 -0.455079 167 226 223
-0.830613 1.002480 -0.469818 167 226 223
-0.810171 1.000700 -0.470749 167 226 223
-1.008750 -0.168025 0.264578 240 133 188
-1.001790 -0.172367 0.263165 240 133 188
1.014620 -0.985820 0.325555 235 172 198
0.993325 -0.818141 0.289301 240 210 238
0.989904 -0.700176 0.369805 157 191 243
0.667031 -0.983645 -0.301518 166 174 186
1.002570 -0.098882 0.243331 223 250 215
0.998837 -0.203863 0.217385 236 196 195
1.006800 -0.262396 0.140541 212 201 244
1.007580 -0.234811 0.164513 212 201 244
1.003520 -0.218131 0.215975 212 201 244
-0.252681 -0.981188 -0.408160 133 213 150
-0.255150 -0.999554 -0.408804 133 213 150
-0.268467 -0.998571 -0.389166 133 213 150
-0.262444 -0.999465 -0.097777 180 238 161
-0.352147 -0.988696 -0.075216 234 253 242
-0.357009 -0.991362 -0.077910 234 253 242
0.280367 -1.000000 -0.137686 208 213 142
-0.268496 -1.006730 0.584164 214 222 198
-0.267091 -0.996959 0.573707 214 222 198
0.155319 -1.004230 0.775869 182 220 160
-0.993645 -0.958296 -0.325445 249 184 168
-1.006980 -0.967126 -0.306695 249 184 168
-0.854749 -1.015760 -0.207618 241 218 137
-0.842199 -1.003220 -0.203488 241 218 137
-1.005540 -0.815120 -0.299829 184 181 166
-1.012580 -0.855989 -0.312090 184 181 166
-0.996115 -0.863262 -0.287397 184 181 166
-0.691016 -0.993923 -0.034950 137 202 193
-0.702107 -1.017660 -0.052882 137 202 193
-0.570991 -0.988604 0.274512 144 236 185
-0.850201 -0.999747 -0.106095 145 163 197
-0.845343 -0.997289 -0.091961 145 163 197
-0.895197 -1.000060 -0.089014 145 163 197
-0.993557 -0.733063 -0.144507 197 208 139
0.998014 -0.268670 -0.363782 147 161 173
0.986745 -0.353395 -0.329158 206 251 131
1.011560 -0.140131 -0.396001 171 161 138
1.015280 -0.141269 -0.400897 171 161 138
0.994011 -0.129944 -0.423563 171 161 138
1.005520 -0.353060 -0.004314 175 137 193
0.990221 -0.316437 -0.001234 175 137 193
0.996476 -0.311134 0.025969 175 137 193
0.998125 -0.359734 0.904619 148 134 168
1.005110 -0.372157 0.887563 148 134 168
1.011310 -0.310964 0.915437 148 134 168
1.018290 -0.317439 0.946818 148 134 168
1.004590 -0.402476 0.844908 160 151 227
0.988872 -0.358405 0.656039 249 228 249
1.015830 -0.352994 0.656720 249 228 249
-1.014200 0.269921 -0.377928 165 178 205
-0.987352 0.328185 -0.351291 242 227 158
-0.993040 0.331186 -0.323412 242 227 158
-1.010650 0.335044 -0.330217 242 227 158
-1.012430 0.312123 -0.369836 242 227 158
-0.997880 0.329079 -0.296917 242 227 158
-1.017410 0.142193 -0.429489 227 179 225
-0.999790 0.114835 -0.434677 227 179 225
-0.990770 0.279382 -0.096225 174 211 130
-1.011240 0.311782 -0.111149 174 211 130
-0.993704 0.347383 -0.045045 219 204 251
-1.015750 0.356947 -0.094867 219 204 251
-0.997521 0.355896 -0.123912 219 204 251
-1.005520 -0.075419 -0.238907 229 218 163
-1.014080 -0.065092 -0.239552 229 218 163
-0.996107 -0.183593 -0.222157 166 149 240
-1.007570 0.331488 0.001709 185 194 221
-1.013240 0.342945 0.008695 185 194 221
-1.010840 0.303810 -0.012207 185 194 221
-1.012410 0.318594 -0.029749 185 194 221
-1.005370 0.312181 -0.032878 185 194 221
-1.016060 0.300315 0.030162 174 170 168
-1.008940 0.328585 -0.107315 153 251 207
-0.993797 0.290416 -0.139766 153 251 207
-0.989704 0.391514 0.766350 221 229 235
-0.189704 1.006750 -0.982127 242 217 136
-0.099097 0.708819 -1.011600 134 242 204
-0.088653 0.686626 -0.983119 134 242 204
-0.387615 1.009710 -0.795384 150 157 168
-0.376498 0.996650 -0.782172 150 157 168
-0.384562 0.983664 -0.808159 150 157 168
-0.449395 0.983003 -0.717939 148 188 234
-0.439399 0.992442 -0.709941 148 188 234
-0.352411 0.610442 -1.002430 166 153 238
-0.298563 0.464797 -0.996450 219 242 158
-0.278365 0.428608 -1.008630 147 178 226
-0.544672 0.995368 -0.790813 165 226 165
1.010690 0.187035 -0.976141 253 196 246
0.993633 0.173442 -0.969529 253 196 246
1.009740 0.159290 -0.955661 253 196 246
0.999535 0.133499 -0.965168 253 196 246
0.991620 0.371471 -0.844979 231 186 225
1.004360 0.373884 -0.836902 231 186 225
1.008210 0.411792 -0.752120 228 150 133
1.009430 0.414430 -0.749145 228 150 133
1.015960 0.406055 -0.751613 228 150 133
0.995450 0.655999 -0.466648 216 158 190
1.013460 0.877612 -0.413077 176 240 221
0.174579 -0.181046 -1.007010 130 227 136
0.268496 -0.109954 -1.010200 242 198 169
0.261023 -0.125528 -0.989279 242 198 169
0.280862 -0.119907 -0.986165 242 198 169
0.300410 -0.110540 -1.012000 242 198 169
0.170740 -0.404328 -0.988641 247 182 244
0.702741 -0.415414 -1.010210 231 235 179
0.705877 -0.414520 -0.982536 231 235 179
0.676287 -0.424434 -0.999517 231 235 179
0.757221 -0.173115 -0.984740 187 192 148
0.752882 -0.157621 -1.006210 187 192 148
0.138645 -0.673967 -0.984534 248 241 131
0.128248 -0.710097 -0.982108 248 241 131
0.167098 -0.729528 -1.008890 248 241 131
0.286028 -0.583584 -0.995141 170 194 142
0.328108 -0.551546 -0.995861 159 248 159
0.152145 -0.986323 -0.997889 214 156 245
0.154419 -0.970828 -1.013860 214 156 245
0.111570 -0.970262 -0.985704 214 156 245
0.417638 -0.994575 -0.799210 204 241 206
0.427578 -0.774451 -1.007180 153 245 231
0.406903 -0.745988 -1.002560 153 245 231
0.670665 -0.986884 -0.500787 241 209 235
-0.765775 -0.338983 -0.985022 142 163 227
-0.993912 -0.392582 -0.820763 175 240 223
-0.996127 -0.389076 -0.830767 175 240 223
-1.014540 -0.394213 -0.805232 175 240 223
-0.986420 -0.418855 -0.855039 221 157 139
-1.010630 -0.395993 -0.868737 221 157 139
-1.007770 -0.397171 -0.740028 164 216 210
-0.997377 -0.394353 -0.737935 164 216 210
-0.479460 -0.877458 -1.001730 140 141 183
-0.781875 -0.665619 -0.997719 250 241 147
-0.430613 -0.707456 -0.983824 175 244 254
-0.080839 1.011000 0.799521 139 231 185
-0.369862 0.997926 0.648292 216 232 179
-0.438490 1.014560 0.774475 213 163 188
-0.448470 0.981821 0.757581 213 163 188
-0.186872 0.999724 0.424880 137 196 218
0.894162 0.986253 0.251081 185 204 233
0.952256 0.995445 0.189131 208 138 242
1.017560 0.913945 0.133945 249 192 170
1.003990 0.900940 0.107825 249 192 170
0.986955 0.895832 0.093035 249 192 170
0.991798 0.890995 0.227270 166 214 172
0.989062 0.917838 0.232287 166 214 172
1.001350 0.865822 0.232775 166 214 172
0.689570 1.002620 0.736906 229 188 194
1.011740 0.685611 0.286763 254 154 250
1.014980 0.684674 0.289298 254 154 250
0.999718 0.654675 0.304173 254 154 250
1.016690 0.645998 0.294945 254 154 250
0.163216 0.986642 -0.205298 179 220 207
0.285564 1.002060 -0.076654 218 188 189
0.287444 1.004570 -0.122950 218 188 189
0.338613 0.990571 -0.101176 174 157 164
0.361838 1.016230 -0.102002 241 193 206
0.364197 1.013780 -0.117647 241 193 206
0.355696 1.004730 -0.118251 241 193 206
0.127672 1.017160 -0.211229 133 250 134
0.093400 0.996872 -0.208636 133 250 134
0.062952 1.013740 -0.166623 133 250 134
0.040581 0.988046 -0.123791 133 250 134
0.204973 1.012580 -0.302624 150 136 248
0.174146 0.990164 -0.276552 150 136 248
0.119627 0.993942 -0.299695 150 136 248
0.831294 1.015940 -0.297911 145 139 174
0.809952 0.996298 -0.298786 145 139 174
0.771195 1.008630 -0.275154 145 139 174
0.708241 1.006890 -0.366102 138 195 203
0.717484 1.010300 -0.136718 181 222 241
0.151746 0.983790 -0.705724 238 147 212
0.146112 0.989284 -0.708632 238 147 212
0.340232 1.005380 -0.560544 248 188 137
0.345063 1.009400 -0.559631 248 188 137
0.346668 0.987361 -0.531718 248 188 137
0.361415 0.991557 -0.483355 248 188 137
-0.926537 0.984869 -0.217906 223 233 225
-0.922688 1.002910 -0.212197 223 233 225
-0.893854 0.997885 -0.233775 223 233 225
-0.957232 1.017780 -0.215227 223 233 225
-1.008680 0.973761 -0.137882 208 253 210
-0.998368 0.975938 -0.195688 133 227 188
-0.992443 0.861263 -0.227217 207 171 202
-1.004220 0.837567 -0.236866 207 171 202
-0.752459 1.003280 -0.853183 183 172 240
-0.682747 1.003850 -0.841938 217 254 195
-0.693569 0.995716 -0.873389 217 254 195
-0.760741 1.011750 -0.660607 252 243 198
-0.762701 1.000810 -0.669678 252 243 198
-0.776917 0.999109 -0.655139 173 153 148
-0.991817 0.455319 -0.160713 217 231 220
0.934405 -1.005690 -0.212603 253 184 133
0.990873 -0.958831 -0.146722 169 203 162
1.002580 -0.958080 -0.146835 169 203 162
0.968457 -0.986785 -0.122982 169 203 162
0.954634 -0.986422 -0.188691 248 160 212
0.971399 -1.010090 -0.235780 248 160 212
0.998348 -0.857102 -0.232710 198 214 225
1.010600 -0.872448 -0.251392 198 214 225
1.011060 -0.872299 -0.269381 198 214 225
0.720897 -1.014090 -0.860806 240 172 200
0.794403 -0.981525 -0.667370 246 180 158
0.783538 -1.004750 -0.658598 246 180 158
0.996726 -0.472413 -0.169567 230 201 165
0.997589 -0.468018 -0.129744 211 223 188
0.986251 -0.473133 -0.089337 211 223 188
0.981690 -0.480167 -0.082010 211 223 188
0.999225 -0.449422 -0.278851 234 202 196
0.984221 -0.436846 -0.243016 234 202 196
0.752627 -0.982320 0.141345 251 162 191
0.742077 -1.000800 0.130574 251 162 191
0.774899 -0.986624 0.132616 251 162 191
0.782904 -0.985193 0.130077 251 162 191
0.299567 -1.017320 0.609461 255 202 213
0.303879 -1.016790 0.592880 255 202 213
0.307244 -0.988436 0.593159 255 202 213
0.294060 -0.985098 0.619305 255 202 213
0.276570 -0.985797 0.678126 255 202 213
0.173582 -1.013760 0.934088 152 202 246
0.190990 -0.995011 0.929865 152 202 246
0.548835 -0.990942 0.736842 154 134 173
0.543745 -0.988937 0.732410 154 134 173
0.544144 -1.017840 0.713379 154 134 173
0.604396 -1.005870 0.755510 149 209 218
0.409951 -1.015860 0.732171 141 249 228
-0.996488 -0.984899 0.163306 151 247 157
-0.997162 -0.995359 0.163560 151 247 157
-0.987626 -0.987771 0.155570 151 247 157
-0.835372 -1.017520 0.237586 186 161 158
-0.846370 -0.982620 0.220177 186 161 158
-0.988535 -0.943498 0.159860 140 250 159
-0.984109 -0.486480 0.169824 156 212 255
-0.984430 -0.472724 0.203325 156 212 255
-0.998906 -0.462664 0.169785 188 137 239
-1.006010 -0.463842 0.163681 188 137 239
-1.017910 -0.455454 0.158556 188 137 239
-0.990383 -0.320723 0.230994 205 153 139
1.018040 0.174289 0.195721 255 227 227
1.001730 0.856549 0.541124 168 234 156
1.015810 0.854606 0.549325 168 234 156
1.003940 0.222370 0.870590 158 130 226
0.999299 0.215649 0.835053 158 130 226
1.011880 0.258366 0.908374 158 130 226
1.017050 0.237088 0.935114 158 130 226
0.983132 0.150127 0.983916 193 224 239
1.007580 0.148371 0.962122 193 224 239
0.971844 0.193166 0.996481 193 224 239
0.989300 0.187366 0.935843 193 224 239
0.966523 0.203893 1.000490 193 224 239
0.979899 0.248647 0.993050 193 224 239
0.980756 0.262321 0.995506 193 224 239
1.004820 0.163128 1.013730 159 220 193
0.986399 0.555329 0.731958 135 158 214
0.987352 0.531774 0.768844 135 158 214
1.003690 0.505426 0.773765 135 158 214
0.989350 0.500958 0.788162 135 158 214
1.010000 0.467088 0.818033 135 158 214
0.994261 0.389557 0.742249 198 203 150
0.999319 0.354691 0.750681 198 203 150
-0.986728 -0.163378 0.192786 149 156 184
-1.015720 -0.168948 0.203756 251 244 235
-0.984105 -0.167858 0.208614 251 244 235
-0.983662 -0.809069 0.470831 197 163 236
-1.014890 -0.813924 0.482552 197 163 236
-0.987895 -0.768302 0.479850 197 163 236
-0.986736 -0.827899 0.548673 215 152 132
-0.994460 -0.841367 0.563037 215 152 132
-0.983988 -0.145738 0.972518 164 207 137
-0.995546 -0.138184 0.942592 164 207 137
-0.981519 -0.178059 0.951676 164 207 137
-1.011810 -0.501661 0.651374 246 158 212
-0.986677 -0.501120 0.638058 246 158 212
-0.982418 -0.421838 0.768199 227 188 133
0.848239 0.930464 -1.000400 133 160 179
0.160721 0.063060 -0.995336 145 139 199
0.200682 0.086184 -1.017490 145 139 199
0.220358 -0.108626 -0.990707 218 154 220
0.234855 -0.094212 -0.997673 218 154 220
0.221106 -0.096612 -1.011860 218 154 220
0.328344 0.514945 -1.003900 240 141 175
0.323282 0.516032 -0.989181 240 141 175
0.314737 0.526150 -0.992335 240 141 175
0.407685 0.346972 -1.010000 159 151 253
0.075576 0.788282 -0.998522 193 244 155
0.387428 -0.261635 -1.003890 159 231 173
0.500412 -0.351063 -1.017700 200 139 220
0.576413 -0.252474 -0.996480 200 164 155
0.567400 -0.204279 -0.987632 176 146 172
-0.137487 1.004980 -0.068215 188 244 169
-0.150855 0.987020 -0.045505 188 244 169
-0.414363 0.993857 -0.319082 219 226 202
-0.419972 1.004350 -0.314984 219 226 202
-0.420590 1.006260 -0.331153 189 207 216
-0.434675 0.986352 -0.236739 234 179 175
-0.576960 1.010090 0.311701 213 236 131
-0.912746 1.013960 0.646229 232 238 130
-0.934127 1.005630 0.623786 232 238 130
-0.955562 0.989769 0.595082 232 238 130
0.964289 -0.815145 -1.004130 229 174 243
0.981429 -0.593946 -0.848639 245 255 192
0.982216 -0.592227 -0.844310 245 255 192
0.995757 -0.576836 -0.757622 213 190 144
0.981651 -0.559787 -0.786435 213 190 144
0.707778 -0.609781 -0.995339 213 213 231
0.699929 -0.546672 -1.013050 211 158 237
0.665427 -0.563903 -0.999744 211 158 237
0.814430 -0.599372 -0.996545 210 139 177
0.828817 -0.609541 -1.009460 210 139 177
1.004410 -0.332451 -0.594340 178 212 180
0.991008 -0.388111 -0.669983 231 171 153
0.251581 0.830434 -0.994330 248 194 242
0.204007 0.859285 -0.999554 179 178 146
0.847222 0.507251 -0.983930 171 167 134
0.544531 0.164404 -0.981489 132 141 178
0.576833 0.160145 -1.003200 132 141 178
0.545632 0.132632 -1.005770 132 141 178
0.999493 0.142684 -0.029711 215 132 230
1.011190 0.734958 0.295283 248 166 239
1.011810 0.757804 0.148993 188 245 224
0.997912 0.744478 0.167652 188 245 224
1.000140 0.733001 0.156093 207 230 183
-0.801088 0.787152 -1.009930 254 220 218
-0.793487 0.809567 -1.002370 254 220 218
-0.861216 0.568474 -1.010850 201 219 252
-0.733607 0.420680 -1.006660 248 130 186
-0.749787 0.419188 -0.987184 248 130 186
-0.757436 0.444706 -0.999537 248 130 186
-0.640656 0.419097 -0.985669 254 189 236
-0.641998 0.418436 -0.990306 254 189 236
-0.883844 0.269875 -0.984306 243 139 215
-0.880617 0.279295 -0.988277 243 139 215
-0.865876 0.278895 -1.005970 243 139 215
-0.861906 0.263845 -1.010950 243 139 215
0.076717 0.734893 -0.987067 136 171 174
0.078828 0.731858 -1.003940 136 171 174
0.057525 0.717805 -1.000930 136 171 174
-0.054189 0.853322 -0.989225 148 140 251
0.225702 0.182077 -0.996683 193 232 245
0.223195 0.176411 -0.989838 193 232 245
-0.243140 0.848287 -1.001130 147 237 229
-0.245044 -0.416360 -1.016510 193 183 228
-0.347475 -0.453261 -0.988787 205 211 240
-0.236866 -0.086152 -1.008480 254 153 148
-0.248228 -0.089459 -0.989923 254 153 148
-0.236626 -0.030992 -1.001790 254 153 148
-0.190757 -0.042221 -1.014130 254 153 148
-0.852429 -0.401075 -1.014760 139 177 158
-0.847998 -0.416767 -1.000510 139 177 158
-0.832901 -0.450165 -0.982210 139 177 158
-0.828630 -0.462176 -1.000300 139 177 158
-0.807597 -0.491356 -0.985785 139 177 158
-0.844454 -0.521330 -0.996607 155 237 162
-0.842071 -0.521929 -0.994760 155 237 162
-0.661668 -0.608577 -1.002760 132 205 131
-0.778779 -1.000920 -0.967974 137 174 255
-0.770899 -1.000530 -0.967556 137 174 255
-0.578097 -1.007290 -0.735961 143 240 170
-0.707532 -0.691564 -0.988459 241 218 136
-0.669144 -0.713455 -1.003670 241 218 136
-0.297733 -1.000380 -0.420086 189 215 147
-0.303584 -0.996911 -0.408138 189 215 147
-0.301796 -0.995651 -0.402528 189 215 147
0.267017 -0.420562 -0.989239 159 177 172
0.286926 -0.437999 -1.012670 176 207 148
0.284285 -0.435400 -1.017200 176 207 148
-0.174109 -0.595084 -1.006790 216 156 203
0.167383 -1.001680 -0.077836 180 196 179
0.144747 -0.991979 -0.090588 180 196 179
0.098170 -0.989919 -0.094164 180 196 179
0.357314 -1.006770 -0.387707 192 226 142
0.359440 -1.017820 -0.391722 192 226 142
0.293946 -1.012100 -0.521461 242 135 144
0.301593 -0.990844 -0.570736 242 135 144
0.298820 -0.993295 -0.579960 242 135 144
0.425225 -0.985071 -0.202663 208 220 131
0.420930 -0.997206 -0.223705 208 220 131
0.440278 -1.008170 -0.215631 208 220 131
0.433194 -1.012540 -0.217762 208 220 131
0.448263 -1.005850 -0.188008 208 220 131
0.086208 -0.989900 -0.668307 198 231 211
0.104079 -1.002410 -0.658700 198 231 211
0.080070 -1.012700 -0.659316 198 231 211
0.056663 -0.996535 -0.789835 249 138 206
0.059888 -0.991535 -0.776945 249 138 206
0.069708 -1.014290 -0.786982 249 138 206
-0.932585 0.789289 -0.987143 153 219 237
-0.939421 0.812258 -0.983775 153 219 237
-0.997190 0.800411 -0.967372 250 217 252
-1.006480 0.849677 -0.966660 250 217 252
-0.979024 0.821029 -0.987952 178 195 209
-1.016150 0.603137 -0.847831 219 245 137
-0.995713 0.593058 -0.863353 219 245 137
-1.002460 0.567705 -0.845639 219 245 137
-1.006410 0.643124 -0.866268 219 245 137
-0.993684 0.639349 -0.865363 219 245 137
-1.011210 0.654705 -0.858039 219 245 137
-0.995377 0.667836 -0.881582 219 245 137
-1.006080 0.313884 -0.477971 215 249 152
-0.999813 0.313467 -0.494750 215 249 152
-0.989425 0.283662 -0.516316 215 249 152
-1.009820 0.271702 -0.532833 215 249 152
-0.996338 0.390300 -0.657180 222 168 255
-1.001520 0.401936 -0.653099 222 168 255
-1.018080 0.399956 -0.663543 222 168 255
-0.328435 0.075771 -1.007330 213 193 217
-0.543252 -0.327884 -0.997132 145 170 138
-0.532723 -0.346416 -0.998225 145 170 138
-0.452544 -0.387334 -0.994153 183 237 226
-0.607459 -0.210934 -1.016640 141 213 213
-0.593917 -0.197461 -0.992564 141 213 213
-0.590782 -0.259426 -0.991274 141 213 213
-0.439217 0.298747 -0.987425 136 251 229
-0.437579 0.287594 -1.017220 136 251 229
-0.485687 0.353033 -1.014900 191 181 150
-0.450328 0.319855 -0.987040 191 181 150
-0.990746 -0.168793 -0.016120 182 203 188
-1.018420 -0.197218 -0.047365 182 203 188
-1.010810 -0.172340 0.020539 252 141 146
-1.005700 -0.163486 0.014773 252 141 146
-0.995498 -0.195172 0.008073 252 141 146
-0.997496 -0.336363 0.094528 229 195 134
-0.983626 -0.396327 -0.301172 183 172 222
-0.989366 -0.737532 0.310663 214 172 222
-0.997529 -0.732716 0.164798 212 145 237
0.834805 0.990775 0.967112 241 208 230
0.843479 0.983389 0.971025 241 208 230
0.726066 0.985042 0.692377 240 216 182
0.860006 0.984316 0.729120 205 233 165
0.853888 0.988047 0.718063 205 233 165
0.772270 0.999313 0.826787 132 220 174
0.138578 0.996851 0.041380 249 142 169
0.311865 1.016390 0.546908 251 150 137
0.328728 1.008640 0.538199 251 150 137
0.291828 0.993799 0.530737 251 150 137
0.370397 1.003340 0.528264 251 150 137
0.390832 1.016450 0.356952 241 176 223
0.484900 0.998952 0.205178 225 138 233
0.121177 0.982798 0.663610 161 200 229
0.113484 0.990376 0.654470 161 200 229
0.141649 1.014480 0.667997 161 200 229
0.095962 0.984570 0.634762 161 200 229
0.094242 1.002590 0.694649 161 200 229
0.102608 1.011450 0.626082 161 200 229
0.100691 1.016190 0.625982 161 200 229
0.070010 1.004690 0.693727 161 200 229
0.046831 1.002200 0.621764 161 200 229
0.096911 0.984383 0.656218 162 232 231
0.070694 1.001480 0.785392 185 233 179
0.085464 0.981684 0.797858 185 233 179
0.557858 0.994309 -0.200190 161 206 150
1.008030 0.890981 -0.876423 219 161 254
1.008250 0.901826 -0.874426 219 161 254
0.995496 0.929808 -0.856136 219 161 254
1.018040 0.921126 -0.767103 205 195 214
1.004640 0.917910 -0.768990 205 195 214
0.675206 0.999102 -0.516261 154 205 149
0.726533 1.003240 -0.562686 209 188 224
0.998052 0.706927 -0.851224 182 136 183
1.006940 0.695862 -0.857054 182 136 183
0.988444 0.747047 -0.856045 182 136 183
0.986867 0.758220 -0.907855 182 136 183
0.996821 0.780249 -0.924491 182 136 183
1.014370 0.780614 -0.897715 182 136 183
1.000390 0.641809 -0.832678 184 135 155
0.990440 0.760107 -0.660246 233 130 227
0.805843 0.989231 0.513156 241 219 227
0.827779 0.990600 0.546540 141 173 233
0.396810 0.990956 0.285801 148 211 231
0.998402 0.114262 -0.830156 189 193 192
0.993228 0.100131 -0.826328 189 193 192
0.983521 0.437751 -0.840600 131 161 232
1.005850 0.455956 -0.839856 131 161 232
1.011660 0.482105 -0.158562 132 201 198
1.010580 0.486247 -0.158790 132 201 198
0.987369 0.478574 -0.156592 132 201 198
0.991352 0.507153 -0.199952 132 201 198
0.992949 0.547596 -0.171368 222 196 190
1.014790 0.558810 -0.173865 222 196 190
1.013860 0.581590 -0.122109 217 234 209
0.997414 0.573933 -0.126433 217 234 209
-0.875766 0.983580 0.837437 188 151 202
-0.877289 1.009840 0.847347 188 151 202
-0.844324 0.996835 0.878621 188 151 202
-0.894425 1.009990 0.794812 188 151 202
-0.890596 1.016430 0.790313 188 151 202
-0.766673 1.003620 0.648331 214 216 227
-0.569771 1.002430 0.845213 221 191 234
-0.022941 1.009000 0.832066 143 157 204
-0.043930 1.008310 0.848266 143 157 204
-0.056219 0.992459 0.854221 153 166 179
-0.104868 1.013430 0.764700 171 180 209
-0.132025 0.983052 0.762778 171 180 209
-0.252996 1.004500 0.837557 139 240 217
-0.225652 0.994301 0.855046 139 240 217
-0.208267 0.990063 0.654799 144 241 172
-0.152221 0.990672 0.656159 144 241 172
-0.146858 1.010610 0.706597 144 241 172
-0.127435 0.996142 0.710574 144 241 172
-0.134305 0.985384 0.717785 144 241 172
-0.009210 0.986464 -0.856851 231 248 169
0.002798 0.987419 -0.852823 231 248 169
0.019647 0.985570 -0.828323 244 185 186
0.075599 1.000400 -0.829340 244 185 186
-0.103521 0.996852 -0.737408 228 203 229
-0.352919 0.982801 -0.130327 197 239 224
-0.360577 0.989782 -0.143483 197 239 224
-0.322486 0.992734 -0.170233 197 239 224
-0.403310 0.983313 -0.094813 197 239 224
-0.393800 0.986457 -0.083127 197 239 224
-0.296309 1.001930 -0.153611 197 239 224
-0.369668 1.006330 -0.063638 197 239 224
-0.982686 0.989186 0.671865 154 173 247
-1.018130 0.742775 0.852491 199 147 177
-1.016970 0.784859 0.838009 199 147 177
-0.630509 1.012940 0.153124 160 190 236
-0.659253 1.003290 0.120182 160 190 236
-0.637468 0.983968 0.119294 160 190 236
-0.697605 1.007250 0.157542 249 230 178
-1.014100 0.454831 0.843640 188 174 144
-0.998168 0.474263 0.838825 188 174 144
-0.237399 0.999247 -0.839592 215 170 130
-0.139499 1.009560 -0.835244 155 188 184
-0.090233 0.999834 -0.831516 155 188 184
-0.092294 1.006970 -0.795148 155 188 184
-0.158056 0.992733 -0.822287 216 219 210
-0.143737 1.006340 -0.830896 216 219 210
-0.508459 0.999294 -0.150467 210 161 192
-0.513276 0.995609 -0.142821 210 161 192
-0.534639 0.992188 -0.127993 210 161 192
-0.997779 -0.081290 0.712680 228 151 211
-1.014800 -0.038693 0.741354 228 151 211
-0.994039 0.777287 0.162057 205 156 134
-0.991948 -0.353702 0.486465 208 162 204
1.012610 -0.983572 0.824912 233 212 143
0.981995 -0.656559 0.756800 162 249 239
0.242734 -1.007280 -0.861859 195 163 159
0.462077 -0.985966 -0.832998 244 141 201
0.592719 -1.006850 -0.700658 140 136 206
0.603097 -1.000550 -0.714282 140 136 206
0.484181 -1.002940 -0.151282 180 173 148
0.986524 -0.023140 0.828889 223 133 162
0.989854 0.101192 0.733435 167 136 191
1.011040 0.091911 0.735669 167 136 191
1.006920 0.050236 0.723310 238 183 218
1.017760 0.026224 0.731353 238 183 218
0.985211 0.048207 0.752397 238 183 218
1.007050 0.019944 0.747800 238 183 218
0.984269 0.082487 0.687487 238 183 218
0.986687 -0.487711 0.172064 189 253 197
1.008370 -0.489820 0.172312 189 253 197
0.982940 -0.639662 0.217573 217 148 130
0.992792 -0.642055 0.227676 217 148 130
1.003920 -0.650424 0.216948 217 148 130
-0.765305 -1.006500 -0.606660 213 230 200
-0.776609 -0.997135 -0.623828 213 230 200
-0.585971 -1.009010 -0.859088 170 229 236
-0.089831 -0.986989 -0.870843 222 230 253
0.327301 -0.987979 -0.158049 153 142 193
0.380079 -1.009750 -0.149206 175 183 215
-0.266801 -0.988668 -0.858540 172 213 140
-0.239247 -1.001130 -0.863690 172 213 140
-0.225329 -1.002380 -0.876733 172 213 140
-0.215808 -0.984445 -0.875513 172 213 140
-0.208977 -1.012300 -0.869306 172 213 140
-0.802696 -0.998281 0.144863 244 163 135
-0.864704 -1.009080 0.209161 137 169 211
-0.893314 -0.992931 0.195923 137 169 211
-0.937919 -0.983230 0.155851 137 169 211
-0.340172 -0.986531 0.423261 250 140 138
-0.343676 -1.006330 0.485329 236 238 171
-0.346165 -0.996339 0.479935 236 238 171
-0.233934 -0.987957 0.142240 253 146 174
-0.233533 -1.002610 0.086738 189 200 237
-0.167988 -1.000080 0.034334 239 135 176
-0.861867 -0.982108 0.448331 130 145 158
-0.718942 -0.984503 0.699075 222 149 136
-0.717952 -0.995173 0.683108 222 149 136
-0.844594 -1.008410 0.728911 148 250 176
0.329325 -0.999771 0.484449 192 150 163
0.318573 -0.988236 0.479113 253 179 221
0.296324 -0.987539 0.593225 201 190 248
-0.984271 -0.983059 -0.836449 239 208 164
-0.983946 -0.976841 -0.834947 239 208 164
-0.985309 -0.951348 -0.834732 239 208 164
-0.990468 -0.905119 -0.875900 193 138 182
-1.017040 -0.894224 -0.774730 154 242 151
-0.998996 -0.638396 -0.803302 144 227 200
-0.995488 -0.629656 -0.839799 198 207 167
-0.477573 -0.982937 0.351216 168 198 180
-0.465999 -0.985995 0.336770 168 198 180
-0.424828 -1.002370 0.212666 222 143 184
-0.395534 -1.010950 0.165254 222 143 184
-0.424767 -0.987863 0.128944 222 143 184
-0.438391 -0.995460 0.121195 222 143 184
-0.454802 -0.996037 -0.326858 209 196 247
-0.456454 -0.985950 -0.333990 209 196 247
