ply
format ascii 1.0
comment author: F. Lafarge
element vertex 1178
property float x
property float y
property float z
property uchar red
property uchar green
property uchar blue
end_header
-0.142305 1.017620 0.022039 140 212 168
-0.096612 1.009450 0.031524 140 212 168
-0.080655 1.007140 0.045100 140 212 168
-0.095843 1.009780 0.067963 140 212 168
-0.132294 0.995380 0.097604 140 212 168
-0.139869 0.992370 0.107720 140 212 168
-0.138226 1.010190 0.120221 140 212 168
0.046624 0.736133 -0.989173 205 241 178
0.050713 0.739452 -0.985839 205 241 178
0.027245 0.724895 -1.008940 205 241 178
0.023040 0.789748 -0.992563 205 241 178
0.102818 0.759319 -0.999442 205 241 178
-0.000683 0.788304 -0.995903 205 241 178
-0.020737 0.780270 -1.012780 205 241 178
0.067641 0.803324 -1.014980 205 241 178
-0.045627 0.809645 -0.984995 205 241 178
-0.063644 0.795317 -1.000080 205 241 178
-0.060024 0.809853 -0.991665 205 241 178
-0.085069 0.751246 -1.015550 205 241 178
-0.069166 0.739461 -1.016640 205 241 178
0.424112 0.994978 -0.736454 155 189 194
0.408649 0.991751 -0.748430 155 189 194
0.440332 0.995628 -0.765387 155 189 194
0.406474 1.008300 -0.692251 155 189 194
0.409459 1.003590 -0.685165 155 189 194
0.437515 1.017540 -0.646806 155 189 194
0.452296 1.006980 -0.657839 155 189 194
0.397476 0.991609 -0.632725 155 189 194
0.467727 0.988332 -0.675941 155 189 194
0.429878 0.998796 -0.596509 155 189 194
0.443017 1.004820 -0.591679 155 189 194
0.998709 0.319677 0.567484 141 246 195
0.993677 0.301275 0.580533 141 246 195
0.985669 0.289421 0.580148 141 246 195
0.988127 0.345203 0.535327 141 246 195
0.988801 0.300718 0.514911 141 246 195
1.008570 0.375336 0.549644 141 246 195
1.017940 0.271359 0.532445 141 246 195
0.999893 0.261567 0.528976 141 246 195
1.007470 0.232721 0.605468 141 246 195
0.989825 0.334290 0.490399 141 246 195
1.014740 0.279779 0.481573 141 246 195
0.990081 0.218389 0.600379 141 246 195
1.010280 0.352076 0.472164 141 246 195
0.997726 0.386530 0.460865 141 246 195
1.006630 0.390626 0.417234 141 246 195
1.017070 0.408945 0.420635 141 246 195
0.984350 0.382708 0.407059 141 246 195
0.994285 0.404420 0.407691 141 246 195
0.986310 0.415022 0.401847 141 246 195
1.003110 0.452503 0.406666 141 246 195
1.005540 0.359435 0.363715 141 246 195
0.997698 0.353772 0.356885 141 246 195
-0.996759 -0.813933 -0.420625 153 190 209
-0.990043 -0.832519 -0.413363 153 190 209
-0.987161 -0.821416 -0.437886 153 190 209
-1.000140 -0.820176 -0.441813 153 190 209
-1.005580 -0.831411 -0.400339 153 190 209
-0.990998 -0.887751 -0.424501 153 190 209
-1.011140 -0.779815 -0.467477 153 190 209
-0.983476 -0.892838 -0.461227 153 190 209
-1.003910 -0.905459 -0.371418 153 190 209
-0.987384 -0.908530 -0.340721 153 190 209
-1.012260 -0.952749 -0.338283 153 190 209
-1.017740 -0.997554 -0.349165 153 190 209
-1.004100 -1.013170 -0.361483 153 190 209
-1.007720 -1.004240 -0.294592 153 190 209
0.307140 -0.064399 -0.985034 227 177 183
0.282755 -0.069889 -0.987101 227 177 183
0.293274 -0.086287 -1.005450 227 177 183
0.336010 -0.066247 -1.004010 227 177 183
0.340106 -0.048387 -1.005800 227 177 183
0.345017 -0.065672 -1.010370 227 177 183
0.299362 -0.025724 -1.012470 227 177 183
0.359649 -0.045549 -0.989781 227 177 183
0.279321 -0.011990 -1.001100 227 177 183
0.331247 0.003406 -1.001390 227 177 183
0.302697 0.003002 -1.001270 227 177 183
0.277998 -0.003814 -0.989751 227 177 183
0.299320 0.014703 -0.994489 227 177 183
0.407906 -0.055526 -0.989369 227 177 183
0.362063 0.015141 -0.995809 227 177 183
0.421814 -0.046684 -0.983846 227 177 183
0.426037 -0.071436 -1.018410 227 177 183
0.998534 0.234047 0.297889 192 199 196
0.994332 0.221343 0.296518 192 199 196
1.017270 0.271150 0.314824 192 199 196
0.997016 0.184597 0.268123 192 199 196
0.986691 0.173823 0.298154 192 199 196
1.002910 0.325398 0.301608 192 199 196
1.016880 0.185816 0.217410 192 199 196
0.999373 0.351736 0.291569 192 199 196
1.017340 0.364501 0.295225 192 199 196
0.983812 0.398060 0.314030 192 199 196
1.009930 0.415933 0.351472 192 199 196
1.003690 0.426616 0.360125 192 199 196
0.998255 0.412918 0.375127 192 199 196
1.005640 0.438959 0.366924 192 199 196
0.994555 0.739390 -0.192849 247 247 134
1.010280 0.749486 -0.189442 247 247 134
1.015040 0.769662 -0.142850 247 247 134
0.995010 0.788899 -0.137486 247 247 134
1.010120 0.800392 -0.148656 247 247 134
0.994815 0.795845 -0.147335 247 247 134
0.987816 0.789774 -0.130400 247 247 134
1.013500 0.781061 -0.104824 247 247 134
1.015260 0.837336 -0.131059 247 247 134
1.012910 0.790214 -0.075746 247 247 134
1.004730 0.795781 -0.074687 247 247 134
1.017430 0.741410 -0.076053 247 247 134
0.990931 0.736431 -0.079784 247 247 134
1.003560 0.726566 -0.079411 247 247 134
0.981448 0.701009 -0.130023 247 247 134
1.002180 0.800974 -0.238058 163 215 130
1.011260 0.801599 -0.233568 163 215 130
0.988635 0.748509 -0.250058 163 215 130
1.004740 0.744661 -0.251918 163 215 130
1.005890 0.785519 -0.177527 163 215 130
1.015530 0.832605 -0.171481 163 215 130
1.005720 0.856778 -0.127998 163 215 130
0.992449 0.870734 -0.124396 163 215 130
0.993187 0.874750 -0.122351 163 215 130
1.008170 0.878472 -0.108408 163 215 130
0.990555 0.890034 -0.119713 163 215 130
0.995698 0.813964 -0.087377 163 215 130
0.991117 0.808429 -0.066427 163 215 130
1.013090 0.805607 -0.033479 163 215 130
0.306857 1.005060 0.984037 209 172 210
0.325479 0.991778 0.998709 209 172 210
0.332045 1.005790 0.999785 209 172 210
0.304119 0.993217 1.014380 209 172 210
0.279115 0.982842 1.009320 209 172 210
0.290349 1.007580 1.032070 209 172 210
0.240232 0.986498 1.001140 209 172 210
0.242941 0.997395 0.961077 209 172 210
0.211810 0.987887 0.930127 209 172 210
0.180856 0.998120 0.941766 209 172 210
-0.677119 -0.006622 -0.999926 208 157 251
-0.679944 -0.009445 -0.985478 208 157 251
-0.690181 0.025047 -1.004620 208 157 251
-0.655740 0.022016 -1.012430 208 157 251
-0.703595 0.021003 -1.010230 208 157 251
-0.690614 0.031350 -0.988836 208 157 251
-0.721378 0.018996 -0.986398 208 157 251
-0.719040 0.036041 -0.991592 208 157 251
-0.725147 0.052059 -0.995415 208 157 251
-0.616124 -0.003486 -0.986147 208 157 251
-0.717518 0.097114 -1.011200 208 157 251
-0.586692 -0.000618 -0.991150 208 157 251
-0.617636 -0.033824 -0.988181 208 157 251
-0.591574 -0.045764 -1.009540 208 157 251
-0.722656 0.111207 -1.018710 208 157 251
-0.764959 0.137147 -0.997777 208 157 251
-0.541358 0.019116 -1.006430 208 157 251
-0.568549 -0.070558 -1.010570 208 157 251
-0.782293 0.110300 -1.011670 208 157 251
-0.787392 0.116183 -1.001460 208 157 251
-0.499129 0.031613 -1.006770 208 157 251
-0.601755 -0.111261 -0.993693 208 157 251
-0.488622 0.044525 -1.015140 208 157 251
-0.482963 0.044434 -1.012270 208 157 251
0.002281 0.328887 -0.993446 154 149 160
-0.002901 0.328626 -0.991433 154 149 160
0.011150 0.332948 -0.988548 154 149 160
0.002189 0.332051 -1.007540 154 149 160
-0.015631 0.309176 -0.984596 154 149 160
-0.007559 0.302894 -1.007530 154 149 160
-0.037984 0.360403 -0.982790 154 149 160
0.048392 0.293085 -0.984366 154 149 160
0.082145 0.290597 -0.997317 154 149 160
0.015440 0.242142 -0.981623 154 149 160
0.101279 0.330851 -0.981392 154 149 160
0.056698 0.205877 -0.985844 154 149 160
0.066980 0.198013 -1.006820 154 149 160
0.033026 0.178703 -0.993547 154 149 160
0.040498 0.157164 -1.014740 154 149 160
0.091765 0.155426 -1.007550 154 149 160
0.126323 0.202760 -1.002550 154 149 160
0.149153 0.240184 -1.013570 154 149 160
0.139393 0.270688 -0.993263 154 149 160
-0.988628 -0.919277 -0.546673 201 196 231
-0.996335 -0.915866 -0.544959 201 196 231
-1.012380 -0.906206 -0.554098 201 196 231
-1.015850 -0.942176 -0.541607 201 196 231
-1.002320 -0.902941 -0.578733 201 196 231
-1.015260 -0.860322 -0.570476 201 196 231
-1.014430 -0.886374 -0.600491 201 196 231
-1.003580 -0.912119 -0.632289 201 196 231
-1.018040 -0.871588 -0.647438 201 196 231
-0.995795 -0.891501 -0.651724 201 196 231
-1.005660 -0.874706 -0.659811 201 196 231
-0.513413 -0.991984 -0.551811 254 232 199
-0.513810 -1.003330 -0.558537 254 232 199
-0.523159 -1.010090 -0.562326 254 232 199
-0.525982 -1.013150 -0.540900 254 232 199
-0.502093 -1.013790 -0.536775 254 232 199
-0.465183 -1.003640 -0.507245 254 232 199
-0.446898 -1.006540 -0.512837 254 232 199
-0.440756 -0.981195 -0.514033 254 232 199
-0.405789 -0.995525 -0.484108 254 232 199
-0.402062 -0.997988 -0.480693 254 232 199
0.987146 -0.489814 0.422737 152 138 243
0.998590 -0.516155 0.449329 152 138 243
0.985715 -0.516767 0.378747 152 138 243
1.007260 -0.519391 0.480925 152 138 243
0.998229 -0.573408 0.365978 152 138 243
0.999327 -0.562813 0.509097 152 138 243
0.987563 -0.532923 0.532551 152 138 243
1.007780 -0.548878 0.529761 152 138 243
1.005510 -0.611679 0.358101 152 138 243
0.991041 -0.583201 0.469722 152 138 243
1.013260 -0.595141 0.539428 152 138 243
1.004800 -0.497603 0.569426 152 138 243
1.007460 -0.496085 0.568058 152 138 243
0.984275 -0.630728 0.339124 152 138 243
1.003870 -0.608622 0.419481 152 138 243
1.002100 -0.471894 0.563164 152 138 243
0.985260 -0.457374 0.565888 152 138 243
1.010390 -0.645211 0.419862 152 138 243
0.987215 -0.452395 0.519647 152 138 243
0.998526 -0.687788 0.381786 152 138 243
0.998110 -0.700416 0.334632 152 138 243
1.015850 -0.702692 0.338479 152 138 243
1.018100 -0.717190 0.345145 152 138 243
0.986481 -0.709132 0.311351 152 138 243
1.014200 -0.748516 0.330525 152 138 243
0.997137 -0.761009 0.306415 152 138 243
0.993392 -0.769130 0.309860 152 138 243
0.513722 -0.982502 -0.579188 239 195 213
0.531014 -0.990703 -0.565051 239 195 213
0.493525 -1.011540 -0.570283 239 195 213
0.532891 -1.003120 -0.547307 239 195 213
0.527406 -1.014020 -0.612534 239 195 213
0.561432 -0.984231 -0.559445 239 195 213
0.546318 -0.999738 -0.542295 239 195 213
0.503615 -1.011000 -0.625645 239 195 213
0.499831 -0.991084 -0.635752 239 195 213
0.505418 -1.010900 -0.638484 239 195 213
0.482086 -1.002110 -0.633151 239 195 213
0.577420 -1.018020 -0.639282 239 195 213
0.596482 -1.007850 -0.543649 239 195 213
0.469389 -1.008480 -0.638025 239 195 213
0.441774 -1.011080 -0.651090 239 195 213
0.610043 -1.001930 -0.516535 239 195 213
0.583772 -1.017230 -0.480944 239 195 213
0.607676 -1.000150 -0.466877 239 195 213
0.600005 -1.005550 -0.423456 239 195 213
-0.499480 0.987918 0.447760 137 184 137
-0.534436 0.993546 0.453528 137 184 137
-0.447066 0.981451 0.471268 137 184 137
-0.563067 0.988608 0.475823 137 184 137
-0.564706 1.003620 0.483559 137 184 137
-0.564840 0.997597 0.418965 137 184 137
-0.573007 0.991486 0.485499 137 184 137
-0.557449 0.987298 0.407677 137 184 137
-0.537957 0.987103 0.398476 137 184 137
-0.537675 1.001400 0.382004 137 184 137
0.072931 1.001810 0.486611 211 166 217
0.068718 0.983190 0.473588 211 166 217
0.094645 1.011590 0.450336 211 166 217
0.095143 0.997412 0.446012 211 166 217
0.051804 0.983060 0.447983 211 166 217
0.092745 0.993905 0.431763 211 166 217
0.034620 0.992180 0.421157 211 166 217
-0.016914 0.981320 0.399813 211 166 217
-0.036426 0.981716 0.375827 211 166 217
-0.042459 1.000480 0.384994 211 166 217
-0.046982 1.000990 0.382285 211 166 217
-0.014608 1.005120 0.330710 211 166 217
-0.016389 1.015630 0.326532 211 166 217
0.004358 0.988425 0.309698 211 166 217
-0.049670 1.010650 0.305393 211 166 217
-0.057258 1.000340 0.273833 211 166 217
-0.581352 -0.425808 -1.015450 252 153 155
-0.546463 -0.422760 -0.983419 252 153 155
-0.528540 -0.433973 -1.008790 252 153 155
-0.520319 -0.410711 -1.005970 252 153 155
-0.531823 -0.471241 -1.008710 252 153 155
-0.459588 -0.400738 -0.990980 252 153 155
-0.531941 -0.509912 -0.991651 252 153 155
-0.521395 -0.512666 -1.000090 252 153 155
-0.452715 -0.412791 -1.016290 252 153 155
-0.436356 -0.365247 -1.001610 252 153 155
-0.455571 -0.356585 -0.987586 252 153 155
-0.570727 -0.544527 -1.014090 252 153 155
-0.575378 -0.544998 -1.014430 252 153 155
-0.468573 -0.497029 -1.013400 252 153 155
-0.592946 -0.592953 -0.982828 252 153 155
-0.608639 -0.637958 -1.011260 252 153 155
-0.624369 -0.652857 -0.982948 252 153 155
-0.590893 -0.670411 -1.015440 252 153 155
-0.590722 -0.686514 -0.995418 252 153 155
-0.603552 -0.701725 -1.011240 252 153 155
-0.077398 0.545237 -1.014210 205 152 200
-0.075655 0.555166 -1.014650 205 152 200
-0.070388 0.538845 -1.007050 205 152 200
-0.059173 0.565730 -0.997721 205 152 200
-0.100374 0.510512 -0.986082 205 152 200
-0.027646 0.559479 -1.015840 205 152 200
-0.094018 0.488818 -1.015450 205 152 200
-0.106203 0.492558 -0.996912 205 152 200
-0.110584 0.492195 -1.016480 205 152 200
0.009578 0.517946 -1.003100 205 152 200
0.028891 0.516102 -0.999715 205 152 200
0.009608 1.016630 0.079340 143 138 201
-0.005956 1.005450 0.081433 143 138 201
-0.047965 0.990854 0.048133 143 138 201
-0.068032 1.003660 0.009215 143 138 201
-0.050438 0.991634 -0.000861 143 138 201
-0.117452 0.990984 -0.022206 143 138 201
-0.173593 0.984491 -0.028664 143 138 201
-0.180441 0.989958 -0.033170 143 138 201
-0.186740 0.981808 -0.031533 143 138 201
-0.186144 0.992603 -0.029831 143 138 201
0.991737 0.991163 -0.071842 132 173 134
0.978895 0.995983 -0.089592 132 173 134
0.971143 1.005220 -0.064379 132 173 134
0.969744 0.985249 -0.058869 132 173 134
0.962498 0.992321 -0.067039 132 173 134
1.001220 1.013120 -0.102031 132 173 134
0.991446 1.011030 -0.105407 132 173 134
0.948313 1.012800 -0.019577 132 173 134
0.947553 0.993217 0.000397 132 173 134
0.961289 0.993292 -0.002335 132 173 134
0.966007 0.994058 0.042713 132 173 134
0.950615 1.012660 0.052906 132 173 134
1.008680 1.002280 0.047156 132 173 134
0.932639 -1.016620 0.930169 157 170 139
0.953069 -1.017620 0.940492 157 170 139
0.913422 -1.004670 0.946140 157 170 139
0.915563 -1.013330 0.908052 157 170 139
0.888792 -1.011890 0.929513 157 170 139
0.980547 -1.008000 0.896963 157 170 139
0.929949 -1.017800 0.859510 157 170 139
0.850938 -0.998631 0.963256 157 170 139
0.978662 -0.999702 0.843021 157 170 139
0.948825 -0.989929 0.817716 157 170 139
0.841525 -1.014050 0.965376 157 170 139
0.846331 -1.012810 0.986008 157 170 139
0.919004 -0.989073 0.802395 157 170 139
0.950742 -1.010710 0.787816 157 170 139
0.958635 -1.006570 0.784952 157 170 139
0.920730 -1.005420 0.770393 157 170 139
0.794599 -0.995571 0.939016 157 170 139
0.898441 -0.989297 0.782131 157 170 139
0.898867 -0.997722 0.777532 157 170 139
0.950043 -1.010860 0.754776 157 170 139
0.782393 -0.999216 0.944845 157 170 139
0.970844 -1.009510 0.703664 157 170 139
-0.998950 0.992598 -0.949268 184 244 185
-1.005070 0.989183 -0.955310 184 244 185
-0.989175 0.984237 -0.950029 184 244 185
-0.982631 1.000510 -0.936066 184 244 185
-0.995134 0.997070 -0.923187 184 244 185
-0.969732 1.003000 -0.952794 184 244 185
-0.967488 1.000120 -0.944616 184 244 185
-0.967510 0.987230 -0.968056 184 244 185
-0.950226 1.013260 -0.966445 184 244 185
-0.954989 0.984316 -0.996513 184 244 185
-1.005220 -0.115080 -0.231769 140 146 235
-1.008180 -0.112292 -0.219531 140 146 235
-0.997287 -0.141745 -0.231343 140 146 235
-0.988809 -0.142269 -0.229806 140 146 235
-1.018340 -0.157812 -0.203291 140 146 235
-0.991770 -0.185146 -0.198045 140 146 235
-1.004940 -0.117104 -0.160807 140 146 235
-0.981754 -0.116456 -0.150336 140 146 235
-0.985337 -0.128517 -0.144718 140 146 235
-0.993509 -0.063525 -0.164611 140 146 235
-0.991495 -0.029964 -0.162484 140 146 235
-1.006840 -0.027140 -0.179701 140 146 235
-1.007180 0.754264 -0.868247 237 178 220
-1.001920 0.763438 -0.862454 237 178 220
-0.992564 0.752606 -0.858456 237 178 220
-0.989678 0.730963 -0.877498 237 178 220
-1.000990 0.796795 -0.843006 237 178 220
-0.983299 0.806422 -0.851468 237 178 220
-0.983907 0.684160 -0.850320 237 178 220
-1.013520 0.674891 -0.846270 237 178 220
-0.993684 0.639349 -0.865363 237 178 220
-1.006490 0.698171 -0.791365 237 178 220
0.992966 0.112005 -0.613327 181 159 202
0.995696 0.140781 -0.582272 181 159 202
0.986855 0.146810 -0.541185 181 159 202
0.999897 0.197757 -0.586076 181 159 202
0.999776 0.238217 -0.594806 181 159 202
1.006450 0.238942 -0.601094 181 159 202
1.016920 0.252603 -0.608077 181 159 202
1.008730 0.257402 -0.616326 181 159 202
1.018020 0.263368 -0.608077 181 159 202
1.017870 0.267442 -0.601107 181 159 202
-1.010320 -0.493931 -0.892967 152 197 131
-0.997837 -0.513316 -0.925013 152 197 131
-0.990967 -0.468431 -0.865887 152 197 131
-1.015690 -0.514562 -0.844087 152 197 131
-0.994905 -0.508615 -0.834821 152 197 131
-1.008920 -0.559799 -0.886088 152 197 131
-1.011380 -0.460746 -0.808533 152 197 131
-1.003330 -0.454120 -0.796179 152 197 131
-1.003700 -0.443480 -0.785833 152 197 131
-0.991804 -0.465192 -0.782897 152 197 131
-1.013180 -0.426849 -0.788816 152 197 131
-0.998034 -0.417597 -0.743288 152 197 131
-1.007770 -0.397171 -0.740028 152 197 131
-0.997377 -0.394353 -0.737935 152 197 131
-0.989966 -0.244304 -0.881085 149 197 230
-1.008320 -0.220635 -0.879408 149 197 230
-0.986253 -0.244673 -0.850107 149 197 230
-0.983231 -0.222313 -0.905536 149 197 230
-0.997783 -0.275116 -0.937992 149 197 230
-0.997852 -0.165009 -0.912404 149 197 230
-1.014640 -0.277506 -0.938857 149 197 230
-1.015740 -0.282684 -0.986715 149 197 230
-1.012980 -0.277022 -0.990581 149 197 230
-0.989125 -0.146679 -0.923881 149 197 230
-1.012710 -0.339458 -0.947544 149 197 230
-0.997950 -0.110631 -0.947168 149 197 230
-0.992403 -0.107460 -0.961021 149 197 230
-1.006280 -0.357771 -0.954006 149 197 230
-0.994506 -0.365368 -0.940718 149 197 230
-1.003700 -0.353416 -0.915115 149 197 230
-0.983763 -0.112036 -0.974177 149 197 230
-1.016600 -0.086115 -0.955770 149 197 230
-0.989664 -0.081147 -0.922172 149 197 230
-1.006180 -0.083686 -0.918160 149 197 230
-0.973726 -0.106421 -0.999989 149 197 230
0.133679 -0.997142 0.240603 147 197 156
0.142829 -0.988017 0.235648 147 197 156
0.162314 -1.017780 0.218325 147 197 156
0.190592 -1.000640 0.233239 147 197 156
0.185969 -0.983798 0.273526 147 197 156
0.203723 -1.017720 0.231224 147 197 156
0.205802 -1.018120 0.233746 147 197 156
0.196873 -1.015050 0.251960 147 197 156
0.208488 -1.002900 0.252917 147 197 156
0.205562 -0.991520 0.277717 147 197 156
0.202484 -1.013630 0.295960 147 197 156
-0.731391 -0.981526 -0.865138 169 156 209
-0.758877 -0.984051 -0.877570 169 156 209
-0.734372 -1.010660 -0.847783 169 156 209
-0.692598 -0.994617 -0.878735 169 156 209
-0.792184 -0.987277 -0.887804 169 156 209
-0.780022 -1.015170 -0.875134 169 156 209
-0.724521 -0.998165 -0.799260 169 156 209
-0.658604 -0.992685 -0.892077 169 156 209
-0.845623 -0.981892 -0.890626 169 156 209
-0.800058 -1.017640 -0.837056 169 156 209
-0.676931 -1.000420 -0.774229 169 156 209
-0.858876 -1.011710 -0.893586 169 156 209
-0.864163 -0.989360 -0.857890 169 156 209
-0.874421 -1.003610 -0.849978 169 156 209
-0.859991 -1.010120 -0.830908 169 156 209
-0.655121 -0.994007 -0.770888 169 156 209
-0.626925 -0.988512 -0.769912 169 156 209
-0.691668 -0.985266 -0.724058 169 156 209
-0.902442 -1.007470 -0.841509 169 156 209
-0.614357 1.006800 -0.143537 148 248 205
-0.605665 0.994460 -0.153297 148 248 205
-0.622259 0.990325 -0.128525 148 248 205
-0.630089 0.981736 -0.155609 148 248 205
-0.663454 0.989223 -0.157121 148 248 205
-0.668869 0.991116 -0.152122 148 248 205
-0.601967 1.010100 -0.199696 148 248 205
-0.616090 1.016970 -0.201490 148 248 205
-0.595256 1.016060 -0.206755 148 248 205
-0.689944 1.014040 -0.200891 148 248 205
-0.591602 1.017100 -0.211054 148 248 205
-0.705942 1.008370 -0.217086 148 248 205
0.234504 1.015010 0.630322 160 250 207
0.274145 0.986875 0.661627 160 250 207
0.295568 1.004650 0.705013 160 250 207
0.298367 1.015960 0.734449 160 250 207
0.334585 1.016680 0.667399 160 250 207
0.342493 0.991435 0.752634 160 250 207
0.344582 0.996655 0.667961 160 250 207
0.353027 0.994340 0.782070 160 250 207
0.372252 1.010340 0.778287 160 250 207
0.369027 1.018000 0.780651 160 250 207
-0.741063 0.640566 -1.001100 171 130 175
-0.720298 0.659584 -0.996725 171 130 175
-0.699210 0.641033 -1.015090 171 130 175
-0.688014 0.651105 -0.997440 171 130 175
-0.777226 0.685210 -1.013100 171 130 175
-0.642266 0.680791 -0.992575 171 130 175
-0.620917 0.696509 -1.018190 171 130 175
-0.667272 0.713835 -1.018130 171 130 175
-0.674006 0.718302 -0.992566 171 130 175
-0.581063 0.722105 -1.016450 171 130 175
-0.666340 0.765804 -0.988483 171 130 175
-0.730808 0.720827 -0.995805 171 130 175
-0.642059 0.487502 -1.016110 188 184 198
-0.655418 0.468582 -1.011960 188 184 198
-0.695420 0.456210 -0.984430 188 184 198
-0.705179 0.466194 -1.005930 188 184 198
-0.672548 0.415482 -1.012890 188 184 198
-0.688677 0.421768 -1.016530 188 184 198
-0.710392 0.455177 -0.984034 188 184 198
-0.715878 0.465757 -0.997002 188 184 198
-0.658184 0.409510 -0.997050 188 184 198
-0.633614 0.355727 -0.986317 188 184 198
-0.603028 0.367363 -1.015890 188 184 198
-0.571395 0.350103 -1.014350 188 184 198
-0.127945 -0.238050 -1.005010 236 132 165
-0.134222 -0.243114 -1.000820 236 132 165
-0.111908 -0.242677 -0.984127 236 132 165
-0.124360 -0.289369 -1.013620 236 132 165
-0.076323 -0.241729 -0.990550 236 132 165
-0.188507 -0.219107 -1.008040 236 132 165
-0.143082 -0.303738 -0.993202 236 132 165
-0.068100 -0.265795 -1.006870 236 132 165
-0.143253 -0.306558 -1.014430 236 132 165
-0.170256 -0.293722 -0.994213 236 132 165
-0.046698 -0.236608 -1.004880 236 132 165
-0.061424 -0.271632 -1.016550 236 132 165
0.382345 0.127997 -1.016520 182 149 217
0.360005 0.122014 -0.995414 182 149 217
0.355185 0.158399 -0.992935 182 149 217
0.384035 0.074511 -0.997310 182 149 217
0.338738 0.069965 -0.987971 182 149 217
0.339983 0.191559 -1.001020 182 149 217
0.418457 0.037535 -1.000840 182 149 217
0.405325 0.018983 -0.998397 182 149 217
0.438055 0.040167 -1.014080 182 149 217
0.414157 0.002387 -1.009430 182 149 217
0.867695 -0.762391 -0.990784 234 164 132
0.855713 -0.747419 -1.012150 234 164 132
0.848537 -0.744196 -1.008800 234 164 132
0.875097 -0.783017 -1.014420 234 164 132
0.886247 -0.797029 -0.987911 234 164 132
0.850434 -0.699629 -0.989855 234 164 132
0.896115 -0.831415 -1.017980 234 164 132
0.839776 -0.656513 -1.015660 234 164 132
0.856802 -0.638647 -0.985009 234 164 132
0.922395 -0.863544 -1.008220 234 164 132
0.939810 -0.875068 -0.986677 234 164 132
0.983411 -0.868625 -0.999468 234 164 132
1.015680 0.636456 0.747638 219 254 231
1.008820 0.637811 0.726343 219 254 231
0.986627 0.646675 0.740395 219 254 231
0.984585 0.658417 0.739077 219 254 231
0.989101 0.653801 0.712816 219 254 231
1.018200 0.705698 0.734954 219 254 231
1.006000 0.633797 0.657746 219 254 231
1.015780 0.655878 0.623449 219 254 231
0.991935 0.672835 0.639866 219 254 231
1.011390 0.688275 0.647823 219 254 231
1.015690 0.642346 0.591891 219 254 231
0.986524 0.658116 0.595055 219 254 231
0.995936 0.735142 0.629965 219 254 231
0.995256 0.747160 0.610932 219 254 231
0.999861 0.761761 0.638086 219 254 231
0.987413 0.770471 0.631147 219 254 231
0.983590 0.772565 0.645436 219 254 231
1.004650 0.749342 0.669584 219 254 231
-0.488367 -0.883671 -0.995581 255 201 162
-0.487536 -0.894344 -1.011050 255 201 162
-0.471929 -0.901909 -0.983874 255 201 162
-0.524828 -0.869166 -1.003820 255 201 162
-0.513717 -0.841224 -0.984181 255 201 162
-0.537035 -0.840747 -1.010990 255 201 162
-0.532263 -0.816622 -0.987981 255 201 162
-0.565824 -0.839332 -0.981263 255 201 162
-0.489798 -0.790506 -0.991763 255 201 162
-0.559861 -0.805109 -1.016590 255 201 162
-0.573141 -0.802956 -0.985759 255 201 162
-0.602976 -0.827381 -0.996782 255 201 162
-0.109918 1.002150 -1.016550 195 205 198
-0.092206 0.968976 -0.995013 195 205 198
-0.166171 1.000220 -1.012750 195 205 198
-0.079084 0.953651 -1.010140 195 205 198
-0.156444 0.964900 -1.007060 195 205 198
-0.079862 0.954755 -0.993800 195 205 198
-0.169988 0.987553 -1.006430 195 205 198
-0.215076 0.971514 -1.003000 195 205 198
-0.050173 0.909575 -1.014650 195 205 198
-0.232190 0.996195 -0.997339 195 205 198
-0.233104 1.009010 -1.002490 195 205 198
-0.017208 0.949272 -1.009240 195 205 198
0.607483 1.005120 0.264581 227 137 144
0.563412 0.984143 0.276956 227 137 144
0.539703 0.984050 0.309925 227 137 144
0.513201 0.990088 0.330747 227 137 144
0.512971 1.012590 0.315572 227 137 144
0.464751 0.990613 0.338669 227 137 144
0.452756 1.003830 0.287433 227 137 144
0.396810 0.990956 0.285801 227 137 144
0.357711 1.004440 0.249651 227 137 144
0.329086 1.001900 0.215964 227 137 144
0.346158 0.994440 0.195221 227 137 144
-1.017000 0.143581 -0.748052 254 214 220
-0.992646 0.152611 -0.722031 254 214 220
-0.997658 0.139147 -0.781141 254 214 220
-1.017330 0.184418 -0.776621 254 214 220
-1.001650 0.181200 -0.779094 254 214 220
-0.997719 0.124450 -0.701816 254 214 220
-1.016310 0.154854 -0.695488 254 214 220
-1.016890 0.134639 -0.687299 254 214 220
-0.998281 0.139734 -0.668865 254 214 220
-1.012710 0.174461 -0.657764 254 214 220
-0.981655 0.151991 -0.654138 254 214 220
-0.869208 1.004640 0.256306 254 218 205
-0.862953 0.999718 0.263400 254 218 205
-0.855117 1.016380 0.247092 254 218 205
-0.888596 1.016400 0.246174 254 218 205
-0.874416 0.984746 0.275946 254 218 205
-0.892758 0.995784 0.279559 254 218 205
-0.908204 1.011290 0.261420 254 218 205
-0.922438 1.017560 0.268921 254 218 205
-0.906402 0.999063 0.191603 254 218 205
-0.905195 0.991161 0.326090 254 218 205
-0.871794 1.010650 0.167874 254 218 205
-0.852351 0.981127 0.161882 254 218 205
-0.611392 0.985479 0.761770 239 247 222
-0.606387 0.996219 0.783946 239 247 222
-0.628722 0.988410 0.718267 239 247 222
-0.575950 0.982009 0.716675 239 247 222
-0.652378 1.017990 0.687830 239 247 222
-0.584305 0.985885 0.689606 239 247 222
-0.652749 0.982609 0.651878 239 247 222
-0.571878 0.999453 0.657931 239 247 222
-0.544085 1.017290 0.660527 239 247 222
-0.596830 0.989972 0.626637 239 247 222
-0.593185 0.981821 0.629414 239 247 222
-0.502324 0.994926 0.662365 239 247 222
-0.618431 1.000690 0.593647 239 247 222
-0.626179 1.016400 0.581773 239 247 222
-0.539648 0.983292 0.604770 239 247 222
-0.485287 0.998848 0.609265 239 247 222
-0.534273 1.002300 0.587718 239 247 222
0.607319 -0.624554 -0.982272 138 201 157
0.598661 -0.622196 -0.981231 138 201 157
0.596150 -0.632184 -0.993012 138 201 157
0.596562 -0.594761 -0.988464 138 201 157
0.576646 -0.684652 -1.005540 138 201 157
0.539887 -0.623984 -0.982125 138 201 157
0.544469 -0.712913 -0.997797 138 201 157
0.520441 -0.606591 -0.987565 138 201 157
0.499840 -0.659926 -0.992577 138 201 157
0.518732 -0.675869 -0.982109 138 201 157
0.513960 -0.670105 -1.009510 138 201 157
0.502436 -0.698727 -0.999578 138 201 157
0.500074 -0.701834 -0.986164 138 201 157
0.499392 -0.695015 -0.985275 138 201 157
0.487247 -0.680892 -1.001230 138 201 157
0.875746 -1.017420 0.516801 132 189 229
0.864340 -1.015660 0.507821 132 189 229
0.884707 -0.992768 0.536663 132 189 229
0.897495 -1.014170 0.542418 132 189 229
0.859362 -0.985819 0.500562 132 189 229
0.855507 -1.018450 0.482509 132 189 229
0.892211 -0.996465 0.549100 132 189 229
0.812582 -1.009280 0.532971 132 189 229
0.839734 -0.988204 0.438335 132 189 229
0.821382 -1.014650 0.562782 132 189 229
0.819249 -1.007070 0.563836 132 189 229
0.810197 -0.994577 0.425816 132 189 229
0.846104 -0.993801 0.606542 132 189 229
-1.013490 -0.123552 0.515138 146 242 178
-0.991896 -0.122990 0.505048 146 242 178
-0.993898 -0.082488 0.539521 146 242 178
-0.998233 -0.148537 0.465765 146 242 178
-0.992234 -0.051238 0.502521 146 242 178
-1.009950 -0.163127 0.417632 146 242 178
-1.006420 -0.047350 0.494737 146 242 178
-1.014690 -0.125393 0.398851 146 242 178
-1.000190 -0.166128 0.355301 146 242 178
-0.984767 -0.116540 0.335256 146 242 178
-0.497059 1.012110 -0.382873 147 138 146
-0.476778 0.994984 -0.374073 147 138 146
-0.480952 0.985724 -0.392774 147 138 146
-0.448948 0.987608 -0.379711 147 138 146
-0.446387 1.005660 -0.362345 147 138 146
-0.443273 0.984376 -0.373134 147 138 146
-0.395930 1.017500 -0.368267 147 138 146
-0.372511 1.011640 -0.326650 147 138 146
-0.342168 0.982889 -0.343491 147 138 146
-0.399588 1.013900 -0.281907 147 138 146
-0.436070 1.008920 -0.273477 147 138 146
0.608458 1.009900 1.010300 152 172 167
0.588791 0.990431 1.022250 152 172 167
0.581035 0.977387 1.064330 152 172 167
0.576201 0.958075 1.080550 152 172 167
0.589483 0.978498 1.099540 152 172 167
0.594435 1.018150 1.084160 152 172 167
0.547043 0.979791 1.097490 152 172 167
0.576967 0.910990 1.068640 152 172 167
0.529580 0.986703 1.065280 152 172 167
0.549756 0.889583 1.084920 152 172 167
0.999502 0.620501 0.490708 166 137 241
0.993887 0.596312 0.500903 166 137 241
1.010510 0.624037 0.465065 166 137 241
1.004330 0.604278 0.467531 166 137 241
0.992396 0.594130 0.499934 166 137 241
1.013810 0.614929 0.457565 166 137 241
1.006010 0.577184 0.483483 166 137 241
0.993839 0.646518 0.416722 166 137 241
0.999342 0.662373 0.366676 166 137 241
0.987366 0.623309 0.363661 166 137 241
0.991329 0.686030 0.331797 166 137 241
-1.012670 0.109647 0.878774 221 185 132
-0.989458 0.127621 0.900815 221 185 132
-0.994460 0.096754 0.933232 221 185 132
-0.997593 0.168113 0.914726 221 185 132
-0.997746 0.170039 0.932449 221 185 132
-1.007140 0.088160 0.976195 221 185 132
-0.997684 0.109459 0.981434 221 185 132
-1.002100 0.053693 0.961717 221 185 132
-1.007990 0.193659 0.902133 221 185 132
-0.997328 0.184797 0.944499 221 185 132
-0.984892 0.201611 0.951794 221 185 132
-1.010880 0.220473 0.941816 221 185 132
-1.008240 0.075399 0.986482 221 185 132
-1.013650 0.009646 0.958787 221 185 132
-1.011390 0.226505 0.940016 221 185 132
-1.003240 0.279274 0.936321 221 185 132
-0.981744 0.299695 0.982926 221 185 132
-0.985169 0.315433 0.896690 221 185 132
-0.015888 0.997060 -0.109163 225 191 167
-0.016172 0.989496 -0.112847 225 191 167
-0.005760 0.995145 -0.108100 225 191 167
-0.036979 0.989260 -0.106566 225 191 167
0.001373 0.983663 -0.117431 225 191 167
-0.006770 1.013640 -0.089226 225 191 167
0.015707 0.999778 -0.096505 225 191 167
0.029090 0.997686 -0.113874 225 191 167
0.070521 0.987312 -0.084752 225 191 167
0.096439 0.993581 -0.116356 225 191 167
0.116265 0.991029 -0.060396 225 191 167
-0.986362 -0.893270 -0.014729 231 239 219
-0.998465 -0.872919 -0.017444 231 239 219
-1.005340 -0.924568 0.005993 231 239 219
-1.000600 -0.911467 0.029180 231 239 219
-0.997786 -0.974337 -0.008541 231 239 219
-1.018770 -0.881990 0.047044 231 239 219
-1.004540 -0.986340 -0.001803 231 239 219
-1.018430 -1.005030 -0.036461 231 239 219
-1.002430 -0.968262 -0.075451 231 239 219
-0.981832 -0.937296 -0.092468 231 239 219
-1.006540 -0.921584 -0.109162 231 239 219
0.981519 -0.245519 -0.762077 229 179 218
0.983056 -0.205416 -0.769082 229 179 218
1.002540 -0.155403 -0.790935 229 179 218
1.000840 -0.169321 -0.814374 229 179 218
0.996557 -0.158816 -0.815411 229 179 218
0.982866 -0.151005 -0.822880 229 179 218
0.996005 -0.128154 -0.879730 229 179 218
1.011530 -0.121752 -0.872914 229 179 218
0.999721 -0.156885 -0.899401 229 179 218
1.012170 -0.139057 -0.952645 229 179 218
1.007050 -0.184512 -0.955597 229 179 218
0.982064 -0.189265 -0.972509 229 179 218
0.992968 -0.192175 -0.985169 229 179 218
0.997044 -0.509218 0.257260 243 218 254
1.008740 -0.501005 0.248702 243 218 254
1.010760 -0.507967 0.273304 243 218 254
1.007750 -0.509922 0.233423 243 218 254
1.001450 -0.513798 0.229563 243 218 254
1.002130 -0.449026 0.252167 243 218 254
0.987139 -0.499356 0.183376 243 218 254
0.992210 -0.571023 0.210159 243 218 254
0.987100 -0.449546 0.212328 243 218 254
0.981700 -0.575727 0.256136 243 218 254
-0.023660 1.011130 0.494479 197 252 187
-0.061293 1.010830 0.507439 197 252 187
-0.053798 0.989330 0.514971 197 252 187
-0.035861 1.001370 0.451694 197 252 187
-0.027839 1.002230 0.445871 197 252 187
-0.034427 0.981430 0.450892 197 252 187
-0.102781 1.011570 0.465788 197 252 187
-0.112997 1.001980 0.472904 197 252 187
-0.129407 1.006720 0.490118 197 252 187
-0.120609 0.982241 0.432332 197 252 187
-0.150398 0.998255 0.495994 197 252 187
-0.174430 0.987706 0.413127 197 252 187
-0.203205 0.987786 0.428002 197 252 187
-0.931078 0.994397 -0.534368 184 169 252
-0.935013 1.004190 -0.540638 184 169 252
-0.900533 1.008190 -0.538753 184 169 252
-0.961079 0.986935 -0.550995 184 169 252
-0.954578 1.005210 -0.559306 184 169 252
-0.970217 0.990390 -0.549490 184 169 252
-0.947892 0.986483 -0.492828 184 169 252
-0.986517 1.010850 -0.560131 184 169 252
-0.877897 0.986921 -0.521949 184 169 252
-0.988557 0.989907 -0.548979 184 169 252
0.993899 0.282648 0.438658 161 145 160
0.993767 0.296252 0.433584 161 145 160
0.991130 0.253729 0.434836 161 145 160
1.005520 0.247056 0.404919 161 145 160
1.002950 0.330109 0.470293 161 145 160
0.982266 0.235574 0.389680 161 145 160
0.984868 0.221040 0.390060 161 145 160
1.009690 0.211967 0.467022 161 145 160
1.017760 0.195003 0.404270 161 145 160
1.011850 0.356740 0.505066 161 145 160
0.998813 0.234687 0.490842 161 145 160
0.983345 0.186425 0.469319 161 145 160
0.988042 0.157831 0.389093 161 145 160
1.016270 0.151233 0.360347 161 145 160
-1.008760 -0.238951 0.392284 131 156 223
-1.015200 -0.225434 0.402448 131 156 223
-0.993613 -0.228827 0.403883 131 156 223
-1.000460 -0.250882 0.418334 131 156 223
-1.018740 -0.212392 0.433101 131 156 223
-0.983262 -0.210082 0.426245 131 156 223
-0.984740 -0.285043 0.375663 131 156 223
-0.981376 -0.313505 0.357880 131 156 223
-0.981370 -0.334399 0.340253 131 156 223
-0.982658 -0.336872 0.342393 131 156 223
-0.987109 -0.328104 0.312211 131 156 223
-0.993334 -0.286020 0.305572 131 156 223
-0.990839 -0.334027 0.270565 131 156 223
-1.014510 -0.335758 0.278194 131 156 223
-1.013020 -0.287564 0.299921 131 156 223
-0.994897 -0.352243 0.264263 131 156 223
-0.999975 -0.341063 0.247667 131 156 223
0.524418 1.013770 -0.950366 162 167 184
0.509185 0.982058 -0.962399 162 167 184
0.489987 1.003740 -0.935063 162 167 184
0.488790 1.002340 -0.938048 162 167 184
0.531128 1.005850 -0.998060 162 167 184
0.531210 0.989949 -0.905348 162 167 184
0.463465 1.017570 -0.923996 162 167 184
0.435218 1.018630 -0.950930 162 167 184
0.408698 0.987946 -0.947506 162 167 184
0.395885 1.018870 -0.928126 162 167 184
0.459182 1.013340 -0.992321 162 167 184
0.376281 1.015980 -0.982319 162 167 184
0.345323 0.993055 -1.013740 162 167 184
0.336231 0.997662 -1.011960 162 167 184
0.320373 1.010720 -0.993838 162 167 184
0.281117 0.996998 -0.985736 162 167 184
0.282446 0.987302 -0.989321 162 167 184
0.276043 0.992960 -0.982366 162 167 184
0.261098 1.018810 -0.968571 162 167 184
0.293621 0.950244 -1.011420 162 167 184
-0.205951 0.996633 -0.215959 143 213 232
-0.212205 1.001220 -0.201189 143 213 232
-0.188939 1.000610 -0.239592 143 213 232
-0.245910 0.984272 -0.194724 143 213 232
-0.248864 1.007660 -0.196243 143 213 232
-0.180592 1.000740 -0.174329 143 213 232
-0.188419 1.004050 -0.166642 143 213 232
-0.152568 0.984348 -0.234651 143 213 232
-0.145547 1.018110 -0.252407 143 213 232
-0.192710 0.996689 -0.135555 143 213 232
-0.204694 1.004240 -0.105710 143 213 232
-0.221681 1.018020 -0.077317 143 213 232
-0.245052 1.011790 -0.067601 143 213 232
-0.247785 0.997238 -0.068168 143 213 232
-0.222857 1.012650 -0.046557 143 213 232
-0.248911 1.008560 -0.059622 143 213 232
-0.247040 0.996522 -0.054036 143 213 232
-0.251366 1.003740 -0.032392 143 213 232
-0.265664 0.985002 -0.051822 143 213 232
-0.780624 -0.776652 -1.007540 131 247 204
-0.787692 -0.776553 -0.982002 131 247 204
-0.806484 -0.721153 -1.003320 131 247 204
-0.838083 -0.755312 -1.001490 131 247 204
-0.829571 -0.716350 -0.990670 131 247 204
-0.830903 -0.716019 -0.993187 131 247 204
-0.838010 -0.744248 -1.003960 131 247 204
-0.854726 -0.765351 -0.985221 131 247 204
-0.865615 -0.731366 -0.987729 131 247 204
-0.905575 -0.753866 -0.998539 131 247 204
-0.904712 -0.748453 -1.002610 131 247 204
-0.529271 -0.997718 0.214633 142 251 188
-0.535501 -0.987128 0.193943 142 251 188
-0.558654 -1.001080 0.206847 142 251 188
-0.534998 -0.990148 0.274256 142 251 188
-0.518683 -0.999880 0.307004 142 251 188
-0.505836 -1.014340 0.301431 142 251 188
-0.496195 -1.008520 0.309257 142 251 188
-0.498631 -1.006840 0.358215 142 251 188
-0.452670 -1.004790 0.327717 142 251 188
-0.467456 -1.009470 0.362176 142 251 188
-0.451162 -1.017110 0.350519 142 251 188
-0.481080 -1.015780 0.027523 143 199 157
-0.490282 -1.011760 0.024629 143 199 157
-0.530545 -1.011990 0.021083 143 199 157
-0.452665 -1.000840 -0.013566 143 199 157
-0.531079 -0.984623 0.002271 143 199 157
-0.554022 -0.997331 0.014236 143 199 157
-0.572188 -1.004050 0.029564 143 199 157
-0.568309 -1.008520 0.047942 143 199 157
-0.573701 -1.004040 0.037388 143 199 157
-0.593918 -0.993473 0.028045 143 199 157
-1.005340 0.536883 -0.519618 232 181 251
-1.009790 0.550662 -0.517968 232 181 251
-0.986064 0.523224 -0.507134 232 181 251
-0.986070 0.536593 -0.559440 232 181 251
-1.009460 0.531107 -0.566070 232 181 251
-0.990670 0.555654 -0.575611 232 181 251
-0.997306 0.560950 -0.612332 232 181 251
-0.993019 0.585202 -0.628896 232 181 251
-0.995997 0.595063 -0.624531 232 181 251
-1.015150 0.506469 -0.625338 232 181 251
0.544897 0.992464 0.954976 221 218 149
0.539579 0.993695 0.954602 221 218 149
0.530889 1.012730 0.962902 221 218 149
0.585147 0.991398 0.989024 221 218 149
0.612853 1.012980 0.987339 221 218 149
0.575798 0.997779 1.022460 221 218 149
0.622324 1.012340 0.984122 221 218 149
0.580684 1.014440 1.026300 221 218 149
0.524823 0.995195 1.024550 221 218 149
0.674059 1.006310 1.010690 221 218 149
0.507740 0.996080 1.042660 221 218 149
0.512713 0.989013 1.080500 221 218 149
0.517124 0.989291 1.083700 221 218 149
-0.985700 0.748633 -0.704224 220 159 247
-0.991545 0.745077 -0.731415 220 159 247
-1.002860 0.732196 -0.724067 220 159 247
-1.014850 0.752319 -0.714247 220 159 247
-1.012780 0.762609 -0.733093 220 159 247
-0.996316 0.701842 -0.743120 220 159 247
-1.006810 0.786977 -0.658491 220 159 247
-1.010900 0.786543 -0.659967 220 159 247
-0.989570 0.716580 -0.761793 220 159 247
-1.008520 0.718714 -0.771469 220 159 247
-1.006460 0.718650 -0.782120 220 159 247
-0.982759 0.680097 -0.723359 220 159 247
-0.992396 0.667216 -0.743312 220 159 247
-0.991699 0.715866 -0.789368 220 159 247
-0.986995 0.720864 -0.787550 220 159 247
-1.001780 0.768789 -0.641530 220 159 247
-0.994506 0.845379 -0.661142 220 159 247
-0.991938 0.760484 -0.809141 220 159 247
-1.012340 0.680620 -0.665086 220 159 247
-1.004880 0.798243 -0.590973 220 159 247
-0.991585 0.857747 -0.656241 220 159 247
-1.011200 0.856275 -0.665222 220 159 247
-1.004190 0.842571 -0.685974 220 159 247
-1.009550 0.867417 -0.671543 220 159 247
-1.013640 0.875587 -0.669633 220 159 247
-1.007490 0.778219 -0.812995 220 159 247
-1.006860 0.765782 -0.831914 220 159 247
-0.993601 0.752980 -0.846720 220 159 247
-1.015440 0.751551 -0.845900 220 159 247
-1.013380 0.653718 -0.658980 220 159 247
-1.001790 0.699172 -0.639624 220 159 247
-0.995891 0.830233 -0.569651 220 159 247
-0.983905 0.758964 -0.569965 220 159 247
-1.010170 0.829759 -0.548725 220 159 247
-1.004980 0.868908 -0.721738 220 159 247
-0.991869 0.846029 -0.723368 220 159 247
-1.002850 0.676380 -0.600534 220 159 247
-0.990427 0.687719 -0.591051 220 159 247
-0.982804 0.838098 -0.543043 220 159 247
-1.003040 0.847495 -0.541784 220 159 247
-1.000970 0.866784 -0.579946 220 159 247
-1.001350 0.865099 -0.546117 220 159 247
-0.983548 0.848930 -0.750765 220 159 247
-0.986370 0.874905 -0.519876 220 159 247
-0.992418 0.907686 -0.485003 220 159 247
0.719601 0.379486 -0.998664 243 234 146
0.740012 0.397586 -1.009220 243 234 146
0.739984 0.408638 -0.998747 243 234 146
0.693738 0.411922 -1.017670 243 234 146
0.737450 0.422248 -0.990552 243 234 146
0.704020 0.425308 -0.994367 243 234 146
0.665054 0.377369 -1.000740 243 234 146
0.764483 0.418125 -0.997089 243 234 146
0.780975 0.395987 -1.005250 243 234 146
0.690758 0.435429 -0.997797 243 234 146
0.661070 0.344523 -1.007880 243 234 146
0.644874 0.352449 -0.986103 243 234 146
0.629385 0.351587 -1.001640 243 234 146
-0.112142 -0.653283 -0.999054 248 203 134
-0.120782 -0.653629 -0.988820 248 203 134
-0.129978 -0.683773 -0.997208 248 203 134
-0.101525 -0.702784 -0.999021 248 203 134
-0.147390 -0.693704 -0.984466 248 203 134
-0.087559 -0.710951 -1.003860 248 203 134
-0.181541 -0.669629 -1.011990 248 203 134
-0.079145 -0.718747 -1.018710 248 203 134
-0.039822 -0.721028 -0.982075 248 203 134
-0.200244 -0.699919 -1.015180 248 203 134
0.003032 -0.716111 -0.993916 248 203 134
0.039227 -0.711527 -0.992164 248 203 134
0.027294 -0.676409 -0.992087 248 203 134
0.032366 -0.653872 -0.996716 248 203 134
0.045580 -0.647032 -1.012580 248 203 134
-0.003471 -0.616346 -1.007750 248 203 134
-0.001960 -0.618154 -1.018160 248 203 134
0.028264 -0.599456 -0.982770 248 203 134
-0.017610 -0.631454 -1.011220 248 203 134
-0.000739 -0.593759 -1.003080 248 203 134
-0.023131 -0.591878 -1.007160 248 203 134
-0.039595 -0.595445 -0.986753 248 203 134
0.044316 -0.566215 -1.004910 248 203 134
-0.030051 -0.549467 -0.995404 248 203 134
-0.068708 -0.596836 -0.981229 248 203 134
-0.110336 -0.568766 -1.000390 248 203 134
-0.120871 -0.587613 -1.010780 248 203 134
-0.117103 -0.561919 -0.993694 248 203 134
0.662310 -0.987454 -0.271479 205 152 153
0.652712 -1.003270 -0.271971 205 152 153
0.616902 -1.002410 -0.227629 205 152 153
0.607908 -0.992908 -0.199393 205 152 153
0.621681 -1.000170 -0.196957 205 152 153
0.590738 -0.983928 -0.232450 205 152 153
0.567573 -0.992011 -0.252743 205 152 153
0.645732 -1.015980 -0.174520 205 152 153
0.510762 -0.992153 -0.233018 205 152 153
0.503838 -1.015250 -0.242608 205 152 153
0.983786 0.756669 -0.285384 137 158 232
1.000310 0.785552 -0.294452 137 158 232
0.994207 0.720467 -0.333324 137 158 232
1.006610 0.809504 -0.332085 137 158 232
0.984601 0.721374 -0.346017 137 158 232
0.984334 0.697190 -0.342067 137 158 232
0.990251 0.718573 -0.361944 137 158 232
1.007830 0.705348 -0.356686 137 158 232
1.005700 0.739514 -0.359111 137 158 232
1.012370 0.723767 -0.374117 137 158 232
0.984362 0.673563 -0.344003 137 158 232
1.009050 0.846870 -0.339535 137 158 232
1.004270 0.733410 -0.393277 137 158 232
1.005750 0.878052 -0.324490 137 158 232
0.982403 0.906529 -0.325865 137 158 232
1.001650 0.906284 -0.349567 137 158 232
0.981949 0.899253 -0.365506 137 158 232
1.010030 0.922457 -0.296147 137 158 232
-0.621277 -0.981181 0.103034 239 229 214
-0.617372 -0.994759 0.107793 239 229 214
-0.584852 -0.994897 0.113048 239 229 214
-0.579757 -0.992542 0.096002 239 229 214
-0.661527 -1.001310 0.118302 239 229 214
-0.576209 -0.999291 0.110579 239 229 214
-0.574120 -0.997048 0.106217 239 229 214
-0.544897 -0.983728 0.108251 239 229 214
-0.581123 -1.018760 0.052971 239 229 214
-0.601226 -1.017430 0.027160 239 229 214
1.007320 -0.270453 -0.015205 214 153 190
1.005850 -0.277933 -0.028295 214 153 190
0.983123 -0.293453 -0.010531 214 153 190
0.995959 -0.316455 -0.017372 214 153 190
0.988978 -0.234562 -0.050827 214 153 190
0.985378 -0.221407 -0.039807 214 153 190
1.007350 -0.367764 -0.029462 214 153 190
1.000450 -0.223293 -0.065510 214 153 190
0.987762 -0.237980 -0.107452 214 153 190
0.993238 -0.366656 -0.039160 214 153 190
0.104529 -0.899153 -1.007560 143 141 213
0.086867 -0.864637 -1.012770 143 141 213
0.071296 -0.841879 -0.990686 143 141 213
0.060039 -0.804275 -0.993730 143 141 213
0.046975 -0.801899 -0.993481 143 141 213
0.008438 -0.842257 -0.994892 143 141 213
-0.001668 -0.840503 -0.988926 143 141 213
-0.013142 -0.833855 -1.006150 143 141 213
-0.014736 -0.819700 -1.004980 143 141 213
-0.035524 -0.809715 -1.016380 143 141 213
-0.076366 -0.799213 -1.011360 143 141 213
-0.076470 -0.776468 -0.983474 143 141 213
-0.116335 -0.785178 -0.991801 143 141 213
-0.090084 -0.853668 -0.993426 143 141 213
-0.128142 -0.744888 -1.004320 143 141 213
-0.081798 -0.875460 -1.008550 143 141 213
-0.034257 -0.895950 -0.989820 143 141 213
0.015608 -0.906024 -1.006370 143 141 213
0.471389 0.995189 -0.018469 184 212 186
0.481554 1.015060 -0.029477 184 212 186
0.499735 0.992836 -0.003480 184 212 186
0.537364 1.002960 0.032662 184 212 186
0.544286 1.000830 0.045248 184 212 186
0.576436 1.002860 0.028858 184 212 186
0.610918 1.016580 0.027172 184 212 186
0.617723 0.982934 0.040102 184 212 186
0.613554 0.982193 0.059351 184 212 186
0.638159 0.988458 0.052752 184 212 186
0.073239 1.009510 -0.765884 136 211 216
0.080859 1.016250 -0.763742 136 211 216
0.099111 1.006070 -0.777616 136 211 216
0.048483 0.993067 -0.755668 136 211 216
0.063048 1.011820 -0.726203 136 211 216
0.119753 1.013540 -0.785449 136 211 216
0.041332 0.984789 -0.728056 136 211 216
0.117597 0.997663 -0.810527 136 211 216
0.012584 0.988155 -0.784364 136 211 216
0.000873 0.989001 -0.784662 136 211 216
0.152433 1.002360 -0.845653 136 211 216
-0.919161 0.984535 -0.228898 150 177 175
-0.918069 1.012790 -0.224118 150 177 175
-0.970903 0.985200 -0.220908 150 177 175
-0.961820 0.982354 -0.262162 150 177 175
-0.966946 0.998943 -0.207059 150 177 175
-0.951084 1.009990 -0.271104 150 177 175
-0.970837 1.000500 -0.205257 150 177 175
-0.971927 1.018030 -0.210297 150 177 175
-0.966289 1.005940 -0.168007 150 177 175
-0.981775 0.970828 -0.164008 150 177 175
-0.982703 0.994407 -0.142399 150 177 175
-0.980711 1.014440 -0.105044 150 177 175
-1.011840 0.996339 -0.098454 150 177 175
0.299347 -1.004050 0.546005 162 197 162
0.287827 -0.999914 0.545897 162 197 162
0.299607 -0.996176 0.557145 162 197 162
0.310249 -0.990664 0.575340 162 197 162
0.332959 -1.011370 0.567719 162 197 162
0.349384 -1.010260 0.568893 162 197 162
0.388397 -1.006950 0.608657 162 197 162
0.422916 -1.011650 0.613244 162 197 162
0.452571 -1.002420 0.642559 162 197 162
0.502597 -1.002400 0.640224 162 197 162
0.502729 -1.005950 0.637921 162 197 162
1.008190 0.198161 0.606418 227 165 233
1.011300 0.215748 0.607819 227 165 233
0.990998 0.205355 0.591995 227 165 233
0.990072 0.153703 0.623934 227 165 233
1.008070 0.158533 0.643469 227 165 233
1.002640 0.185626 0.659259 227 165 233
0.993925 0.185526 0.661288 227 165 233
0.994062 0.130151 0.655027 227 165 233
0.999967 0.113226 0.608187 227 165 233
0.999840 0.110877 0.653818 227 165 233
0.996323 0.186709 0.670647 227 165 233
1.006430 0.106106 0.656584 227 165 233
-0.983873 -0.190276 0.208693 227 181 209
-0.984105 -0.167858 0.208614 227 181 209
-1.015720 -0.168948 0.203756 227 181 209
-0.983266 -0.196381 0.267109 227 181 209
-0.987131 -0.193943 0.270491 227 181 209
-0.982940 -0.250399 0.188241 227 181 209
-0.990407 -0.107871 0.213372 227 181 209
-0.992411 -0.215204 0.271820 227 181 209
-1.015840 -0.232720 0.248891 227 181 209
-0.994516 -0.269552 0.199125 227 181 209
-1.009950 -0.064362 0.220146 227 181 209
-0.985958 -0.097989 0.159182 227 181 209
-0.997096 -0.092933 0.156885 227 181 209
-0.997534 -0.029221 0.189543 227 181 209
-1.015900 -0.017141 0.253574 227 181 209
-0.998251 -0.058998 0.279645 227 181 209
-0.986180 -0.100598 0.142606 227 181 209
-0.981580 -0.079776 0.137842 227 181 209
-0.994747 -0.059922 0.151257 227 181 209
-0.993891 0.005093 0.154742 227 181 209
-1.013470 0.000683 0.253070 227 181 209
-1.004660 -0.013582 0.282509 227 181 209
-0.984458 -0.023100 0.261249 227 181 209
-0.989913 -0.093910 0.272324 227 181 209
-0.991702 0.034512 0.145502 227 181 209
-1.007450 0.034729 0.091908 227 181 209
-1.013630 0.032749 0.091585 227 181 209
-1.003530 0.085386 0.079937 227 181 209
-0.994349 0.100891 0.047948 227 181 209
-0.981978 0.765944 0.764324 245 139 143
-0.995957 0.772688 0.780312 245 139 143
-1.007860 0.768759 0.770907 245 139 143
-1.010360 0.786108 0.750391 245 139 143
-0.983738 0.773716 0.727507 245 139 143
-1.006830 0.791071 0.740293 245 139 143
-1.004750 0.779295 0.827358 245 139 143
-1.013750 0.831481 0.731335 245 139 143
-0.984228 0.827630 0.772892 245 139 143
-1.005750 0.823086 0.828379 245 139 143
-0.992891 0.766646 0.873484 245 139 143
-0.994338 0.861498 0.717654 245 139 143
-0.994961 0.827716 0.863468 245 139 143
-1.009820 0.860570 0.858790 245 139 143
-1.001820 0.839948 0.880320 245 139 143
-0.996304 0.848858 0.877800 245 139 143
-0.996234 0.736032 0.875983 245 139 143
-1.004930 0.844842 0.886767 245 139 143
-1.005490 0.846359 0.905588 245 139 143
-1.016130 0.845205 0.903076 245 139 143
-0.987077 0.611245 0.792540 214 157 208
-1.009630 0.625391 0.799106 214 157 208
-0.995567 0.635069 0.777317 214 157 208
-0.997514 0.634249 0.834325 214 157 208
-1.011860 0.658889 0.791586 214 157 208
-0.984695 0.645959 0.735949 214 157 208
-0.997466 0.682874 0.717408 214 157 208
-0.988048 0.686635 0.715272 214 157 208
-0.983884 0.682009 0.702217 214 157 208
-1.013900 0.712124 0.705090 214 157 208
