ply
format ascii 1.0
comment author: F. Lafarge
element vertex 1225
property float x
property float y
property float z
property uchar red
property uchar green
property uchar blue
end_header
1.009770 0.998229 0.742067 163 218 204
0.985998 0.971721 0.744086 163 218 204
1.015300 0.912513 0.717150 163 218 204
1.007960 0.934882 0.716931 163 218 204
1.003300 0.919370 0.702450 163 218 204
1.016600 0.936747 0.706385 163 218 204
1.008640 0.875110 0.717224 163 218 204
0.998522 0.906019 0.700010 163 218 204
1.015710 0.872493 0.716263 163 218 204
0.992580 0.847586 0.712065 163 218 204
0.988329 0.958706 0.714054 163 218 204
1.001970 0.956837 0.698001 163 218 204
0.990923 0.979361 0.702010 163 218 204
0.991101 0.948104 0.681009 163 218 204
1.015520 0.696292 0.892351 163 218 204
1.016090 0.695246 0.922835 163 218 204
0.985185 0.703988 0.870162 163 218 204
1.011640 0.691728 0.971011 163 218 204
1.015170 0.835109 0.709430 163 218 204
0.993406 0.821118 0.708964 163 218 204
0.988951 0.722696 0.834153 163 218 204
0.999372 0.776191 0.746952 163 218 204
1.016410 0.739386 0.769206 163 218 204
1.002590 0.739247 0.763061 163 218 204
1.001500 0.718438 0.801171 163 218 204
0.990276 0.728753 0.771205 163 218 204
0.988172 0.685721 0.934502 163 218 204
0.981592 0.693088 0.923921 163 218 204
0.987330 0.671391 0.925338 163 218 204
0.994701 0.700363 0.861368 163 218 204
0.985646 0.697416 0.842355 163 218 204
0.981717 0.708094 0.823202 163 218 204
1.003410 0.654385 0.895006 163 218 204
0.984006 0.677075 0.855643 163 218 204
0.991527 0.684843 0.843134 163 218 204
1.018220 0.693995 0.812652 163 218 204
0.996496 0.776999 0.729300 163 218 204
1.015740 0.791103 0.710412 163 218 204
1.002780 0.800832 0.707224 163 218 204
1.006970 0.819880 0.698958 163 218 204
1.007360 0.789446 0.703369 163 218 204
1.016890 0.767985 0.720656 163 218 204
1.012400 0.875481 0.683905 163 218 204
0.991097 0.867017 0.686513 163 218 204
1.002920 0.857177 0.674405 163 218 204
1.001730 0.720970 0.777529 163 218 204
1.000870 0.711111 0.785541 163 218 204
0.999554 0.685878 0.786006 163 218 204
0.984703 0.740375 0.726848 163 218 204
0.989840 0.727737 0.739977 163 218 204
0.999180 0.985274 0.705224 163 218 204
0.993067 0.983490 0.701103 163 218 204
0.982756 0.906014 0.674346 163 218 204
0.982635 0.912224 0.669381 163 218 204
0.984195 0.951180 0.663094 163 218 204
1.012220 0.880995 0.664956 163 218 204
1.001770 0.819701 0.672066 163 218 204
0.982191 0.833374 0.659523 163 218 204
0.997210 0.799185 0.683361 163 218 204
0.996829 0.999114 0.683187 163 218 204
1.000080 0.964885 0.648672 163 218 204
0.993049 0.948571 0.646484 163 218 204
1.006670 0.968936 0.642270 163 218 204
0.987552 0.654918 0.903399 163 218 204
0.984449 0.655620 0.882553 163 218 204
1.015910 0.639150 0.931482 163 218 204
0.984198 0.658006 0.829726 163 218 204
0.985851 0.655430 0.992108 163 218 204
0.992819 0.782982 0.687267 163 218 204
1.016810 0.715245 0.730388 163 218 204
1.018200 0.705698 0.734954 163 218 204
0.990183 0.698468 0.733472 163 218 204
0.999263 0.684415 0.778808 163 218 204
1.005960 0.635988 0.902605 163 218 204
0.991346 0.622469 0.961990 163 218 204
1.004090 0.661275 0.827059 163 218 204
1.009050 0.644959 0.860270 163 218 204
0.984702 0.639514 0.835237 163 218 204
1.005430 0.658531 0.799130 163 218 204
1.009430 0.611983 0.874077 163 218 204
1.010680 0.609189 0.909209 163 218 204
0.984444 0.602368 0.898335 163 218 204
0.985805 0.636120 0.844483 163 218 204
1.005420 0.667532 0.773146 163 218 204
1.012140 0.640582 0.786461 163 218 204
0.989031 0.753052 0.691077 163 218 204
1.018390 0.743426 0.688439 163 218 204
1.004180 0.794154 0.653400 163 218 204
1.004650 0.749342 0.669584 163 218 204
0.992713 0.836881 0.646858 163 218 204
1.014650 0.886223 0.644427 163 218 204
1.018210 0.870536 0.639738 163 218 204
0.996387 0.849928 0.645726 163 218 204
1.018860 0.873922 0.633672 163 218 204
1.003860 0.850461 0.634475 163 218 204
1.007680 0.840538 0.638058 163 218 204
1.017850 0.831141 0.635218 163 218 204
1.003460 0.866545 0.624532 163 218 204
1.009090 0.677029 0.736433 163 218 204
0.989267 0.635479 0.780362 163 218 204
0.984585 0.658417 0.739077 163 218 204
0.987398 0.721328 0.700032 163 218 204
0.988744 0.705851 0.704457 163 218 204
0.990616 0.705500 0.686211 163 218 204
1.014740 0.923260 0.624493 163 218 204
1.013960 0.903580 0.617419 163 218 204
0.989741 0.977794 0.623274 163 218 204
0.991142 0.785978 0.641906 163 218 204
1.012800 0.813892 0.627247 163 218 204
0.983590 0.772565 0.645436 163 218 204
0.999861 0.761761 0.638086 163 218 204
0.983716 0.984480 0.600625 163 218 204
0.982051 0.940101 0.596226 163 218 204
1.010450 0.930860 0.595868 163 218 204
1.011930 0.622589 0.954268 163 218 204
1.007230 0.614427 0.954751 163 218 204
1.005040 0.604558 0.956093 163 218 204
1.016580 0.591036 0.916528 163 218 204
1.012270 0.589207 0.952799 163 218 204
1.008000 0.626688 0.815169 163 218 204
1.014930 0.629673 0.804030 163 218 204
0.983277 0.608221 0.842711 163 218 204
1.004860 0.618995 0.799420 163 218 204
0.992150 0.636051 0.996827 163 218 204
0.983905 0.643472 1.015520 163 218 204
1.014330 0.612204 0.984474 163 218 204
0.987413 0.770471 0.631147 163 218 204
1.010960 0.696690 0.687745 163 218 204
0.981225 0.674903 0.705574 163 218 204
0.989101 0.653801 0.712816 163 218 204
0.986627 0.646675 0.740395 163 218 204
0.989372 0.602938 0.863140 163 218 204
1.008090 0.610228 0.852078 163 218 204
1.001640 0.577063 0.918170 163 218 204
0.971327 0.590500 0.988269 163 218 204
1.002450 0.592630 0.844878 163 218 204
0.999041 0.598918 0.823103 163 218 204
1.017430 0.626547 0.780852 163 218 204
1.015680 0.636456 0.747638 163 218 204
0.992928 0.565957 0.902612 163 218 204
1.014580 0.562388 0.922863 163 218 204
0.981825 0.565643 0.914873 163 218 204
0.997687 0.550773 0.908238 163 218 204
1.008820 0.637811 0.726343 163 218 204
0.999789 0.594394 0.767366 163 218 204
1.000270 0.609508 0.746344 163 218 204
0.984998 0.597479 0.767571 163 218 204
1.005040 0.719297 0.662839 163 218 204
1.007880 0.745940 0.640779 163 218 204
0.993145 0.700412 0.658767 163 218 204
1.016420 0.784426 0.609030 163 218 204
0.982168 0.757309 0.617486 163 218 204
0.995936 0.735142 0.629965 163 218 204
1.006150 0.700345 0.645198 163 218 204
0.988594 0.835254 0.601071 163 218 204
0.982290 0.869491 0.601378 163 218 204
0.997721 0.883733 0.600566 163 218 204
1.018130 0.906528 0.593232 163 218 204
1.009860 0.814814 0.589484 163 218 204
1.015980 0.796701 0.593048 163 218 204
0.993996 0.640766 0.711906 163 218 204
0.983135 0.664113 0.690528 163 218 204
0.993573 0.625323 0.709977 163 218 204
1.015430 0.642388 0.687254 163 218 204
1.013220 0.670108 0.673139 163 218 204
1.011390 0.688275 0.647823 163 218 204
0.991935 0.672835 0.639866 163 218 204
0.990640 0.953449 0.588622 163 218 204
0.995256 0.747160 0.610932 163 218 204
0.995061 0.736722 0.609237 163 218 204
0.986216 0.715711 0.626321 163 218 204
0.982622 0.769149 0.583267 163 218 204
1.004660 0.751749 0.584074 163 218 204
0.981241 1.008820 0.576582 163 218 204
0.994062 0.954487 0.560984 163 218 204
0.996412 0.941961 0.560546 163 218 204
1.014950 0.899059 0.547707 163 218 204
1.013580 0.944226 0.537617 163 218 204
1.014170 0.565785 0.963816 163 218 204
1.016910 0.551054 0.935661 163 218 204
1.012600 0.554906 0.871806 163 218 204
1.007400 0.548265 0.982536 163 218 204
1.018660 0.532457 0.957363 163 218 204
1.014800 0.581172 0.809168 163 218 204
1.004680 0.573885 0.825814 163 218 204
0.985143 0.560873 0.820419 163 218 204
0.990670 0.555135 0.847959 163 218 204
1.014820 0.565453 0.826093 163 218 204
0.993866 0.570434 0.782133 163 218 204
0.970267 0.610365 1.018620 163 218 204
1.007990 0.649683 0.679124 163 218 204
1.001080 0.623876 0.671567 163 218 204
1.006000 0.633797 0.657746 163 218 204
0.993036 0.592387 0.738142 163 218 204
1.009460 0.529641 0.939987 163 218 204
0.997163 0.521124 0.896337 163 218 204
1.003270 0.553676 0.829635 163 218 204
0.986801 0.522676 0.889625 163 218 204
0.981664 0.515200 0.909090 163 218 204
0.999747 0.519296 0.875259 163 218 204
1.016940 0.518758 0.943797 163 218 204
0.992772 0.523839 0.951849 163 218 204
0.998625 0.493978 0.908444 163 218 204
1.009860 0.590649 0.706841 163 218 204
1.017000 0.588710 0.708824 163 218 204
0.989046 0.581978 0.725729 163 218 204
1.007380 0.568744 0.744531 163 218 204
1.009910 0.549602 0.788944 163 218 204
0.986399 0.555329 0.731958 163 218 204
1.015280 0.540993 0.750969 163 218 204
1.015280 0.538924 0.779925 163 218 204
0.984594 0.699414 0.626513 163 218 204
1.018780 0.722080 0.596205 163 218 204
0.992335 0.716188 0.596781 163 218 204
0.989404 0.677049 0.610446 163 218 204
1.015780 0.655878 0.623449 163 218 204
1.018440 0.794641 0.559440 163 218 204
0.997122 0.801812 0.563144 163 218 204
1.002560 0.812532 0.562086 163 218 204
0.991572 0.759438 0.560507 163 218 204
0.996846 0.857737 0.572130 163 218 204
0.989139 0.828226 0.560945 163 218 204
0.997275 0.845785 0.558710 163 218 204
0.984769 0.830090 0.545799 163 218 204
1.013700 0.919955 0.532372 163 218 204
0.981325 0.805565 0.550109 163 218 204
1.009590 0.787936 0.542880 163 218 204
1.015810 0.854606 0.549325 163 218 204
0.986297 0.631268 0.645825 163 218 204
1.000500 0.629535 0.631998 163 218 204
1.009150 0.593316 0.653932 163 218 204
0.986524 0.658116 0.595055 163 218 204
0.988779 0.667930 0.583847 163 218 204
1.000490 0.689433 0.582302 163 218 204
0.981937 0.697875 0.572861 163 218 204
1.018250 0.725035 0.558189 163 218 204
1.003630 0.778344 0.533509 163 218 204
1.000060 0.754743 0.530350 163 218 204
0.995663 0.725657 0.544357 163 218 204
1.016720 0.732655 0.545372 163 218 204
1.000100 0.732559 0.531258 163 218 204
0.966623 0.999359 0.533859 163 218 204
0.982777 0.921427 0.532372 163 218 204
1.007540 0.994922 0.521756 163 218 204
0.992276 0.900925 0.520789 163 218 204
0.982210 0.936584 0.504692 163 218 204
1.010380 0.876850 0.531862 163 218 204
1.014860 0.864808 0.543960 163 218 204
0.994104 0.873433 0.532523 163 218 204
1.001730 0.856549 0.541124 163 218 204
1.012630 0.873058 0.509039 163 218 204
0.989964 0.868938 0.514210 163 218 204
1.004800 0.904251 0.493449 163 218 204
1.006980 0.960434 0.494840 163 218 204
1.002900 0.929047 0.486361 163 218 204
1.002180 0.948873 0.474575 163 218 204
1.018600 0.533681 1.001410 163 218 204
0.999281 0.517987 0.968378 163 218 204
0.999488 0.516783 0.982232 163 218 204
0.991966 0.514613 0.845213 163 218 204
0.993847 0.533796 0.827202 163 218 204
1.003360 0.519359 0.827258 163 218 204
0.989559 0.494654 0.971447 163 218 204
0.999165 0.492203 0.921103 163 218 204
0.987352 0.531774 0.768844 163 218 204
0.985587 0.507237 0.851690 163 218 204
1.014450 0.524747 0.767217 163 218 204
0.983396 0.602681 0.650638 163 218 204
0.981902 0.594485 0.647306 163 218 204
1.018770 0.578206 0.666448 163 218 204
0.999729 0.612426 0.618761 163 218 204
1.000750 0.605289 0.606989 163 218 204
0.994865 0.558607 0.704064 163 218 204
1.004450 0.541699 0.732774 163 218 204
0.995526 0.566907 0.690340 163 218 204
1.000290 0.478358 0.922824 163 218 204
0.992074 0.487978 0.896020 163 218 204
1.003650 0.489003 0.882458 163 218 204
0.993277 0.494579 0.859369 163 218 204
1.008860 0.495123 0.828678 163 218 204
0.983564 0.482479 0.848997 163 218 204
0.990007 0.465732 0.924223 163 218 204
1.016960 0.472897 0.919950 163 218 204
0.991369 0.454843 0.891381 163 218 204
0.985548 0.452493 0.905461 163 218 204
0.993066 0.441348 0.929679 163 218 204
1.018730 0.563695 0.692262 163 218 204
1.011510 0.535474 0.690421 163 218 204
1.009470 0.528468 0.709644 163 218 204
0.987764 0.525573 0.744607 163 218 204
1.014300 0.511424 0.788316 163 218 204
1.003690 0.505426 0.773765 163 218 204
0.989350 0.500958 0.788162 163 218 204
1.004810 0.489993 0.780430 163 218 204
0.985058 0.488978 0.754760 163 218 204
1.002840 0.692833 0.568725 163 218 204
1.004210 0.707098 0.547951 163 218 204
0.992782 0.642331 0.580789 163 218 204
1.015690 0.642346 0.591891 163 218 204
1.016170 0.664904 0.565766 163 218 204
1.018740 0.624517 0.598869 163 218 204
0.989486 0.824051 0.528370 163 218 204
1.008730 0.758126 0.516263 163 218 204
0.982897 0.825457 0.515718 163 218 204
0.996199 0.717848 0.536435 163 218 204
1.010900 0.826490 0.495678 163 218 204
0.996921 0.894063 0.491753 163 218 204
1.010160 0.919574 0.473679 163 218 204
0.987564 0.774563 0.506219 163 218 204
1.003570 0.805428 0.495312 163 218 204
0.984209 0.862995 0.499116 163 218 204
1.014490 0.600320 0.596582 163 218 204
1.008090 0.544249 0.660812 163 218 204
0.994123 0.546029 0.633934 163 218 204
0.981223 0.548475 0.641415 163 218 204
0.984638 0.554863 0.623616 163 218 204
0.982342 0.646407 0.547498 163 218 204
0.990975 0.660630 0.544649 163 218 204
0.999192 0.670117 0.539475 163 218 204
1.008830 0.713849 0.528321 163 218 204
0.995814 0.769866 0.488315 163 218 204
0.993444 0.772459 0.477382 163 218 204
0.981919 0.729306 0.505127 163 218 204
1.012930 0.730991 0.488798 163 218 204
1.012210 0.697846 0.500436 163 218 204
1.003310 0.678052 0.515741 163 218 204
1.017360 0.735511 0.477055 163 218 204
0.949223 1.003830 0.522645 163 218 204
0.956924 0.986794 0.507228 163 218 204
0.990673 1.007430 0.481551 163 218 204
1.016270 0.987690 0.470150 163 218 204
1.009470 0.901838 0.472330 163 218 204
0.981688 0.864975 0.484308 163 218 204
1.013580 0.883637 0.475715 163 218 204
0.998994 0.896855 0.467753 163 218 204
0.997740 0.954643 0.455217 163 218 204
1.001920 0.858150 0.458612 163 218 204
1.018090 0.906807 0.449225 163 218 204
1.004510 0.975857 0.457364 163 218 204
1.017380 0.999181 0.453753 163 218 204
1.005340 0.985209 0.437446 163 218 204
1.014690 0.955868 0.423042 163 218 204
1.013540 0.948735 0.421561 163 218 204
0.986475 0.926141 0.426202 163 218 204
1.005670 0.465547 0.987492 163 218 204
1.011730 0.465987 0.986866 163 218 204
1.009920 0.474133 0.834437 163 218 204
0.982842 0.466312 0.817752 163 218 204
1.010000 0.467088 0.818033 163 218 204
1.007530 0.480592 0.799320 163 218 204
0.996694 0.459135 0.966615 163 218 204
0.995768 0.455656 0.956295 163 218 204
1.002660 0.456900 0.991267 163 218 204
1.006730 0.457033 0.991336 163 218 204
1.004290 0.449565 0.847880 163 218 204
1.000310 0.483516 0.726093 163 218 204
1.003180 0.465517 0.763457 163 218 204
0.996172 0.547880 0.605436 163 218 204
0.993140 0.532028 0.676115 163 218 204
1.005060 0.586725 0.578733 163 218 204
0.994762 0.597054 0.570713 163 218 204
1.010040 0.437129 0.932823 163 218 204
1.012780 0.432764 0.922876 163 218 204
1.003970 0.437641 0.947196 163 218 204
0.998495 0.466736 0.806191 163 218 204
1.007330 0.444259 0.812923 163 218 204
0.981730 0.450238 0.807323 163 218 204
0.986092 0.426152 0.854022 163 218 204
0.982827 0.419219 0.890669 163 218 204
0.999934 0.412692 0.902113 163 218 204
1.013820 0.410087 0.936232 163 218 204
1.018630 0.415267 0.882861 163 218 204
0.991080 0.419536 0.846560 163 218 204
0.998898 0.414755 0.967503 163 218 204
0.983601 0.391392 0.922219 163 218 204
1.003530 0.389207 0.949469 163 218 204
0.997063 0.384348 0.934641 163 218 204
1.014980 0.497474 0.684950 163 218 204
1.002420 0.496218 0.666586 163 218 204
1.016490 0.517607 0.635836 163 218 204
1.007860 0.491387 0.650571 163 218 204
0.992910 0.478652 0.717647 163 218 204
0.992551 0.477130 0.716268 163 218 204
0.994640 0.465588 0.776624 163 218 204
1.001630 0.462007 0.755493 163 218 204
0.981469 0.459124 0.753043 163 218 204
0.994866 0.471959 0.727160 163 218 204
0.989900 0.671920 0.510646 163 218 204
0.997801 0.655748 0.520679 163 218 204
0.996202 0.650270 0.515994 163 218 204
1.018240 0.596919 0.547884 163 218 204
1.017620 0.584435 0.554620 163 218 204
1.004860 0.803349 0.481577 163 218 204
1.015920 0.776475 0.460370 163 218 204
1.005890 0.822613 0.472586 163 218 204
0.995521 0.823963 0.463526 163 218 204
1.018520 0.837608 0.462446 163 218 204
1.004810 0.820466 0.441373 163 218 204
0.983590 0.871897 0.451709 163 218 204
1.000740 0.919603 0.425094 163 218 204
0.986786 0.922631 0.423845 163 218 204
0.989258 0.781446 0.454414 163 218 204
0.994178 0.568802 0.558918 163 218 204
1.005970 0.551520 0.568386 163 218 204
0.992995 0.517757 0.631910 163 218 204
0.997730 0.494540 0.647583 163 218 204
1.015410 0.519684 0.614710 163 218 204
1.017230 0.507127 0.623749 163 218 204
0.982982 0.544142 0.599877 163 218 204
1.011360 0.494403 0.623530 163 218 204
0.989004 0.606888 0.535953 163 218 204
0.986645 0.624626 0.506994 163 218 204
0.990351 0.606267 0.514507 163 218 204
0.983249 0.650768 0.492377 163 218 204
1.005020 0.668633 0.491831 163 218 204
0.997571 0.731626 0.457245 163 218 204
0.987331 0.747607 0.441040 163 218 204
1.013400 0.720782 0.468304 163 218 204
0.995412 0.737017 0.443032 163 218 204
0.981653 0.768089 0.428547 163 218 204
1.010700 0.738062 0.439206 163 218 204
1.015660 0.715323 0.454092 163 218 204
1.012750 0.706552 0.437476 163 218 204
0.995853 0.677204 0.465221 163 218 204
1.007410 0.681563 0.454488 163 218 204
1.000510 0.679842 0.449305 163 218 204
0.995963 0.648262 0.477846 163 218 204
0.951845 0.988222 0.487065 163 218 204
0.985677 1.003390 0.448293 163 218 204
1.000320 1.006570 0.414158 163 218 204
0.984888 0.860059 0.437163 163 218 204
1.002570 0.859115 0.429593 163 218 204
1.002320 0.842573 0.424460 163 218 204
1.008870 0.874590 0.415355 163 218 204
0.996600 0.853646 0.407062 163 218 204
0.989274 0.827848 0.417723 163 218 204
1.006350 0.887460 0.400707 163 218 204
0.989562 1.005110 0.410416 163 218 204
0.984016 0.995159 0.406217 163 218 204
1.004080 1.000970 0.389770 163 218 204
0.984766 0.958110 0.393316 163 218 204
0.986809 0.959608 0.390439 163 218 204
0.977199 0.984628 0.387803 163 218 204
0.999301 0.925573 0.374820 163 218 204
0.998988 0.880589 0.402547 163 218 204
0.995869 0.877023 0.405839 163 218 204
0.991397 0.442040 0.988502 163 218 204
0.995571 0.424640 0.990981 163 218 204
1.012530 0.410319 0.994969 163 218 204
0.984233 0.409464 0.985431 163 218 204
1.003690 0.405154 0.981984 163 218 204
1.002710 0.427298 0.839927 163 218 204
1.004720 0.417229 0.796984 163 218 204
1.007600 0.405551 0.841122 163 218 204
0.985588 0.438863 0.724971 163 218 204
1.005990 0.436255 0.700097 163 218 204
1.004030 0.424384 0.728018 163 218 204
1.007230 0.420834 0.767794 163 218 204
1.018200 0.422397 0.739062 163 218 204
1.015170 0.415490 0.750290 163 218 204
1.006770 0.526491 0.566174 163 218 204
1.005810 0.492710 0.581249 163 218 204
0.987965 0.487808 0.596177 163 218 204
1.007840 0.560842 0.543963 163 218 204
0.996983 0.567058 0.529794 163 218 204
1.014780 0.549182 0.537925 163 218 204
0.990064 0.561253 0.525183 163 218 204
1.007090 0.387963 0.950580 163 218 204
1.009380 0.408320 0.780287 163 218 204
0.991685 0.385244 0.852525 163 218 204
0.988226 0.380325 0.834235 163 218 204
0.997565 0.377884 0.868673 163 218 204
1.001160 0.374866 0.832709 163 218 204
1.011220 0.373863 0.843593 163 218 204
0.984953 0.377319 0.905855 163 218 204
1.013680 0.367762 0.898672 163 218 204
0.998643 0.376770 0.935817 163 218 204
1.001940 0.378472 0.941674 163 218 204
1.002930 0.359334 0.924387 163 218 204
1.014670 0.340955 0.913873 163 218 204
1.007390 0.478584 0.646147 163 218 204
0.987774 0.450077 0.673899 163 218 204
0.992307 0.444821 0.678338 163 218 204
0.995860 0.486874 0.612390 163 218 204
1.013680 0.447491 0.627023 163 218 204
0.981281 0.474988 0.602768 163 218 204
1.007530 0.424912 0.687540 163 218 204
0.984445 0.416096 0.735719 163 218 204
1.008860 0.652373 0.463313 163 218 204
0.999502 0.620501 0.490708 163 218 204
0.993887 0.596312 0.500903 163 218 204
0.992396 0.594130 0.499934 163 218 204
0.995141 0.573799 0.506603 163 218 204
0.996836 0.549960 0.515011 163 218 204
1.014120 0.798433 0.423813 163 218 204
1.015740 0.780569 0.408998 163 218 204
0.999847 0.745709 0.419825 163 218 204
0.997390 0.790068 0.412006 163 218 204
1.012440 0.813552 0.404045 163 218 204
1.002190 0.794278 0.406882 163 218 204
0.997942 0.845536 0.394177 163 218 204
1.015040 0.892059 0.385420 163 218 204
0.989901 0.521425 0.544618 163 218 204
1.002020 0.514313 0.543923 163 218 204
0.996751 0.528798 0.513085 163 218 204
1.000160 0.469088 0.596873 163 218 204
1.015770 0.438120 0.613387 163 218 204
0.995815 0.448875 0.586007 163 218 204
1.003350 0.442410 0.591513 163 218 204
1.004330 0.604278 0.467531 163 218 204
1.010510 0.624037 0.465065 163 218 204
1.006010 0.577184 0.483483 163 218 204
1.013810 0.614929 0.457565 163 218 204
0.984915 0.654204 0.447377 163 218 204
0.985739 0.755211 0.403280 163 218 204
0.984128 0.742049 0.390264 163 218 204
1.011520 0.747111 0.388258 163 218 204
0.993437 0.764390 0.380605 163 218 204
1.008180 0.751272 0.379584 163 218 204
1.007480 0.687366 0.407266 163 218 204
1.012110 0.674599 0.412023 163 218 204
1.018610 0.677014 0.405219 163 218 204
0.997514 0.690939 0.392768 163 218 204
0.991236 0.706627 0.388884 163 218 204
0.993839 0.646518 0.416722 163 218 204
1.018330 0.608289 0.448395 163 218 204
0.969961 0.987169 0.367873 163 218 204
0.996177 0.846460 0.385842 163 218 204
1.015420 0.858528 0.373335 163 218 204
1.009730 0.848089 0.365618 163 218 204
0.999642 0.827443 0.357043 163 218 204
1.011690 0.873801 0.354071 163 218 204
1.004390 0.891650 0.360420 163 218 204
0.986987 0.909282 0.361859 163 218 204
0.968104 0.983284 0.365821 163 218 204
1.014140 0.978073 0.360141 163 218 204
0.985271 0.951510 0.365869 163 218 204
1.000340 0.984352 0.331340 163 218 204
0.987873 0.948889 0.345866 163 218 204
0.995157 0.917704 0.354293 163 218 204
1.011400 0.930128 0.329278 163 218 204
1.000830 0.884320 0.344566 163 218 204
1.014290 0.384289 0.805255 163 218 204
0.991522 0.390403 0.781556 163 218 204
0.990313 0.392255 0.762468 163 218 204
1.017540 0.368234 0.795165 163 218 204
1.017670 0.385957 0.756202 163 218 204
1.011960 0.366282 0.810733 163 218 204
1.007820 0.348951 0.828064 163 218 204
1.010800 0.348544 0.818698 163 218 204
1.000070 0.414023 0.708835 163 218 204
0.991752 0.404578 0.718235 163 218 204
1.005410 0.404695 0.699801 163 218 204
1.005310 0.391983 0.716035 163 218 204
0.999613 0.426471 0.659661 163 218 204
1.001880 0.383302 0.721266 163 218 204
0.994261 0.389557 0.742249 163 218 204
0.989998 0.377820 0.723061 163 218 204
1.006600 0.487149 0.537872 163 218 204
1.008030 0.501916 0.524200 163 218 204
1.002920 0.476087 0.563108 163 218 204
0.993486 0.476518 0.563317 163 218 204
1.017890 0.490914 0.528792 163 218 204
0.991595 0.452164 0.577514 163 218 204
1.015580 0.455123 0.539195 163 218 204
0.988710 0.438242 0.610435 163 218 204
0.982819 0.518105 0.514906 163 218 204
0.997108 0.518448 0.501186 163 218 204
0.999998 0.355974 0.782726 163 218 204
0.987937 0.358372 0.764658 163 218 204
0.986296 0.336882 0.840482 163 218 204
0.992494 0.326165 0.883845 163 218 204
1.016870 0.324459 0.880018 163 218 204
1.005860 0.330356 0.792362 163 218 204
0.989685 0.329063 0.911453 163 218 204
0.982572 0.312387 0.914977 163 218 204
1.003690 0.315600 0.874291 163 218 204
0.990942 0.321505 0.940201 163 218 204
0.999916 0.308357 0.912181 163 218 204
1.013120 0.310452 0.940711 163 218 204
0.986600 0.312714 0.892658 163 218 204
1.017190 0.302147 0.939046 163 218 204
1.016630 0.294120 0.894036 163 218 204
0.996598 0.293806 0.925035 163 218 204
1.017010 0.295815 0.948800 163 218 204
1.000950 0.315307 0.963723 163 218 204
0.981420 0.412881 0.627396 163 218 204
1.007960 0.433816 0.594454 163 218 204
1.000230 0.404502 0.626272 163 218 204
1.005160 0.373732 0.671683 163 218 204
0.993861 0.390575 0.648347 163 218 204
0.997499 0.382012 0.653251 163 218 204
0.991895 0.390966 0.639844 163 218 204
1.017640 0.619589 0.424797 163 218 204
1.005650 0.567037 0.459748 163 218 204
0.985869 0.557540 0.459370 163 218 204
1.010880 0.528229 0.475529 163 218 204
0.987346 0.796094 0.366056 163 218 204
0.982797 0.726560 0.384828 163 218 204
0.986927 0.783621 0.352873 163 218 204
0.996839 0.861874 0.332111 163 218 204
0.991493 0.479084 0.502423 163 218 204
1.014490 0.499516 0.493075 163 218 204
0.986172 0.466032 0.518893 163 218 204
0.998566 0.508249 0.468643 163 218 204
1.016920 0.488166 0.487540 163 218 204
1.006260 0.398800 0.584179 163 218 204
0.985830 0.385696 0.606831 163 218 204
0.994836 0.378150 0.608281 163 218 204
1.006270 0.415475 0.539757 163 218 204
0.985140 0.395331 0.565410 163 218 204
1.011860 0.574870 0.438557 163 218 204
1.018440 0.565597 0.444543 163 218 204
0.982373 0.562552 0.436523 163 218 204
1.001540 0.622878 0.408460 163 218 204
1.009850 0.605127 0.407311 163 218 204
0.992744 0.585624 0.407683 163 218 204
1.002040 0.641059 0.402496 163 218 204
0.993018 0.639480 0.396307 163 218 204
0.996547 0.742540 0.360047 163 218 204
1.004570 0.732181 0.349054 163 218 204
1.011930 0.755635 0.342074 163 218 204
0.989762 0.795493 0.343876 163 218 204
0.986408 0.763369 0.329634 163 218 204
1.018240 0.722304 0.334306 163 218 204
0.989654 0.681372 0.382027 163 218 204
1.013160 0.672121 0.373535 163 218 204
0.999342 0.662373 0.366676 163 218 204
0.994600 0.643997 0.373644 163 218 204
1.014210 0.655743 0.351702 163 218 204
0.981842 0.691185 0.348056 163 218 204
0.987730 0.691649 0.345910 163 218 204
0.999832 0.658738 0.345061 163 218 204
0.991329 0.686030 0.331797 163 218 204
0.987166 0.613871 0.391539 163 218 204
1.002010 0.560869 0.418028 163 218 204
0.993615 0.857692 0.332076 163 218 204
1.007850 0.860875 0.328724 163 218 204
0.995192 0.836496 0.323535 163 218 204
1.006600 0.816716 0.331393 163 218 204
0.994702 0.810233 0.342825 163 218 204
0.995791 0.838658 0.312741 163 218 204
0.995607 0.800726 0.306203 163 218 204
1.011870 0.861502 0.305992 163 218 204
0.992240 0.910131 0.318578 163 218 204
0.989814 0.900787 0.300198 163 218 204
0.981695 0.957813 0.317806 163 218 204
0.994664 0.960778 0.308419 163 218 204
0.965618 0.984812 0.308196 163 218 204
0.986094 0.951633 0.292444 163 218 204
1.009230 0.910828 0.297844 163 218 204
1.015360 0.938010 0.294829 163 218 204
0.991012 0.904329 0.284434 163 218 204
0.994126 0.881579 0.298605 163 218 204
0.999319 0.354691 0.750681 163 218 204
1.017300 0.330970 0.759656 163 218 204
0.991604 0.329504 0.766882 163 218 204
0.987868 0.313675 0.817138 163 218 204
1.013130 0.303431 0.852681 163 218 204
1.004520 0.296845 0.831154 163 218 204
0.998905 0.302359 0.800293 163 218 204
1.008650 0.296565 0.856618 163 218 204
1.008470 0.356785 0.705749 163 218 204
0.996893 0.355221 0.705958 163 218 204
1.016300 0.357578 0.687744 163 218 204
1.002030 0.372154 0.641294 163 218 204
1.010260 0.340404 0.708786 163 218 204
0.997109 0.337418 0.730456 163 218 204
0.989824 0.334142 0.749787 163 218 204
0.996986 0.331173 0.748206 163 218 204
1.012360 0.452014 0.527935 163 218 204
0.992664 0.463520 0.507944 163 218 204
0.981930 0.453120 0.515844 163 218 204
1.005570 0.430154 0.521976 163 218 204
1.001150 0.445895 0.498174 163 218 204
0.996520 0.413423 0.531948 163 218 204
0.990279 0.528450 0.452600 163 218 204
0.987902 0.476654 0.473657 163 218 204
0.994489 0.527213 0.446399 163 218 204
0.992427 0.310106 0.747304 163 218 204
0.982199 0.317281 0.730668 163 218 204
0.988680 0.279381 0.837748 163 218 204
1.002690 0.281379 0.843226 163 218 204
1.003760 0.277740 0.891792 163 218 204
0.985317 0.280082 0.777699 163 218 204
0.983522 0.275434 0.933464 163 218 204
0.986677 0.280566 0.945471 163 218 204
1.015760 0.267268 0.853776 163 218 204
1.011880 0.258366 0.908374 163 218 204
1.016760 0.245014 0.912045 163 218 204
0.987821 0.250031 0.890013 163 218 204
1.018570 0.396559 0.556041 163 218 204
1.017020 0.381696 0.577348 163 218 204
0.995980 0.355751 0.598778 163 218 204
1.013900 0.351718 0.645350 163 218 204
1.007980 0.346828 0.618995 163 218 204
0.985578 0.357699 0.591787 163 218 204
1.008670 0.356410 0.663308 163 218 204
1.014870 0.346599 0.639704 163 218 204
1.007140 0.331066 0.683634 163 218 204
1.008130 0.328993 0.673358 163 218 204
1.009220 0.326679 0.671839 163 218 204
1.009520 0.585328 0.390527 163 218 204
1.018050 0.568213 0.399927 163 218 204
1.014590 0.522318 0.436976 163 218 204
0.982669 0.538332 0.406197 163 218 204
0.999065 0.500797 0.440865 163 218 204
1.001940 0.482653 0.451575 163 218 204
0.991312 0.483514 0.448013 163 218 204
0.989459 0.778014 0.310219 163 218 204
1.006890 0.757542 0.308694 163 218 204
0.981965 0.862751 0.295481 163 218 204
1.000930 0.844499 0.291442 163 218 204
1.005990 0.834511 0.292921 163 218 204
0.995664 0.433569 0.484165 163 218 204
0.994458 0.489383 0.410207 163 218 204
1.013110 0.436760 0.474866 163 218 204
1.009790 0.447253 0.451962 163 218 204
1.008570 0.375336 0.549644 163 218 204
1.013590 0.354142 0.576488 163 218 204
0.994383 0.364066 0.553074 163 218 204
1.000810 0.346903 0.565769 163 218 204
1.013620 0.326252 0.592766 163 218 204
0.992066 0.378327 0.523643 163 218 204
0.986413 0.376949 0.518831 163 218 204
1.001420 0.380759 0.503785 163 218 204
1.014270 0.407010 0.489848 163 218 204
0.988127 0.345203 0.535327 163 218 204
0.981828 0.575826 0.377659 163 218 204
0.988395 0.521233 0.390831 163 218 204
0.997850 0.544959 0.377761 163 218 204
0.987366 0.623309 0.363661 163 218 204
1.004230 0.625691 0.357297 163 218 204
1.009950 0.609587 0.355838 163 218 204
0.998255 0.619299 0.353656 163 218 204
1.014940 0.538868 0.382059 163 218 204
0.982058 0.723508 0.321274 163 218 204
0.990590 0.735976 0.312176 163 218 204
1.011190 0.734958 0.295283 163 218 204
1.013070 0.775474 0.296820 163 218 204
0.992717 0.774744 0.292591 163 218 204
0.985853 0.753241 0.284645 163 218 204
1.010970 0.735278 0.284403 163 218 204
0.999572 0.683007 0.302446 163 218 204
1.014980 0.684674 0.289298 163 218 204
1.011740 0.685611 0.286763 163 218 204
1.012230 0.667251 0.309488 163 218 204
1.012790 0.657509 0.328017 163 218 204
0.999718 0.654675 0.304173 163 218 204
0.995276 0.619476 0.321449 163 218 204
1.013710 0.624593 0.310859 163 218 204
1.016690 0.645998 0.294945 163 218 204
0.982816 0.692999 0.274354 163 218 204
0.996226 0.643353 0.291725 163 218 204
1.008320 0.514612 0.402208 163 218 204
1.017490 0.527650 0.374215 163 218 204
0.988974 0.841897 0.269910 163 218 204
0.985876 0.814185 0.268128 163 218 204
0.989753 0.841816 0.256381 163 218 204
1.005580 0.781372 0.266200 163 218 204
1.004830 0.790979 0.258944 163 218 204
1.012240 0.770952 0.270403 163 218 204
1.006710 0.860801 0.252049 163 218 204
0.991193 0.891444 0.264657 163 218 204
1.004380 0.884661 0.247083 163 218 204
0.976033 1.002530 0.277618 163 218 204
1.013480 0.915300 0.245336 163 218 204
1.003090 0.919691 0.244125 163 218 204
0.989062 0.917838 0.232287 163 218 204
0.991798 0.890995 0.227270 163 218 204
1.013070 0.277629 0.752283 163 218 204
0.989185 0.268774 0.827647 163 218 204
0.999781 0.267385 0.828475 163 218 204
1.000810 0.262287 0.799823 163 218 204
0.986798 0.266184 0.781450 163 218 204
0.991753 0.254477 0.808680 163 218 204
1.004470 0.258836 0.843180 163 218 204
1.007290 0.240081 0.850816 163 218 204
0.988963 0.327203 0.703622 163 218 204
1.007470 0.309539 0.673032 163 218 204
1.013640 0.317867 0.640975 163 218 204
0.993754 0.298425 0.699565 163 218 204
0.999647 0.276861 0.731246 163 218 204
1.013980 0.404663 0.483122 163 218 204
1.017300 0.424326 0.472766 163 218 204
1.017470 0.400266 0.480130 163 218 204
0.986741 0.438926 0.445687 163 218 204
1.004510 0.434502 0.439964 163 218 204
1.008030 0.265701 0.743495 163 218 204
1.009070 0.260812 0.723320 163 218 204
1.007200 0.236572 0.838639 163 218 204
1.013710 0.234485 0.835552 163 218 204
0.988147 0.244433 0.794293 163 218 204
0.993546 0.236734 0.918709 163 218 204
0.993291 0.243321 0.778055 163 218 204
1.008510 0.239268 0.788126 163 218 204
1.008890 0.237157 0.753761 163 218 204
0.997969 0.233243 0.751550 163 218 204
1.004570 0.247812 0.737151 163 218 204
0.998874 0.226340 0.768145 163 218 204
1.017050 0.237088 0.935114 163 218 204
1.003940 0.222370 0.870590 163 218 204
0.996907 0.220705 0.880442 163 218 204
1.010610 0.211800 0.904482 163 218 204
1.004000 0.220594 0.935192 163 218 204
1.004440 0.205912 0.888241 163 218 204
1.004540 0.200139 0.928090 163 218 204
1.007190 0.228750 0.968768 163 218 204
0.993272 0.198093 0.861975 163 218 204
0.998709 0.319677 0.567484 163 218 204
0.987490 0.319460 0.560620 163 218 204
1.001180 0.322334 0.556021 163 218 204
0.987559 0.311342 0.657674 163 218 204
0.981222 0.315135 0.659149 163 218 204
1.011090 0.305323 0.620271 163 218 204
0.993677 0.301275 0.580533 163 218 204
1.002920 0.289528 0.665084 163 218 204
0.985858 0.289437 0.658197 163 218 204
0.988031 0.278048 0.680211 163 218 204
1.010500 0.518677 0.376478 163 218 204
1.012270 0.497941 0.386407 163 218 204
1.003110 0.452503 0.406666 163 218 204
1.013670 0.443117 0.407979 163 218 204
0.994468 0.757218 0.255974 163 218 204
1.009260 0.733475 0.258467 163 218 204
1.005870 0.823343 0.246919 163 218 204
0.991254 0.838930 0.242272 163 218 204
1.016740 0.807469 0.252251 163 218 204
0.997726 0.386530 0.460865 163 218 204
1.016880 0.383991 0.475877 163 218 204
1.013820 0.401714 0.443007 163 218 204
1.002180 0.492927 0.375243 163 218 204
0.985853 0.457244 0.387953 163 218 204
0.981482 0.438637 0.400929 163 218 204
1.004430 0.461357 0.364779 163 218 204
1.017070 0.408945 0.420635 163 218 204
0.992733 0.392134 0.443336 163 218 204
1.011850 0.356740 0.505066 163 218 204
1.013540 0.313569 0.532130 163 218 204
0.985669 0.289421 0.580148 163 218 204
1.013830 0.268998 0.598296 163 218 204
0.996435 0.264043 0.589400 163 218 204
0.989825 0.334290 0.490399 163 218 204
0.986367 0.334458 0.489880 163 218 204
1.010280 0.352076 0.472164 163 218 204
0.984700 0.359587 0.463832 163 218 204
1.003580 0.311126 0.508450 163 218 204
0.988801 0.300718 0.514911 163 218 204
1.014520 0.310312 0.504667 163 218 204
1.013820 0.301313 0.515593 163 218 204
0.984857 0.489775 0.344876 163 218 204
1.009720 0.498725 0.342108 163 218 204
0.994808 0.523634 0.332500 163 218 204
0.984519 0.556112 0.318379 163 218 204
0.982421 0.508211 0.329387 163 218 204
1.016890 0.604925 0.318937 163 218 204
0.988483 0.734683 0.253275 163 218 204
1.008180 0.792368 0.248150 163 218 204
1.003580 0.778376 0.242954 163 218 204
0.991407 0.734740 0.231972 163 218 204
0.990494 0.674557 0.264564 163 218 204
0.991278 0.640385 0.281636 163 218 204
1.004170 0.657533 0.250294 163 218 204
1.005410 0.661664 0.246344 163 218 204
1.002380 0.652479 0.248651 163 218 204
1.016200 0.674225 0.236239 163 218 204
0.987640 0.636630 0.260126 163 218 204
0.996512 0.580960 0.307528 163 218 204
1.014160 0.586438 0.297344 163 218 204
0.998087 0.573256 0.302437 163 218 204
1.010560 0.593124 0.272123 163 218 204
1.001380 0.579437 0.276272 163 218 204
0.995435 0.700800 0.226781 163 218 204
1.001750 0.708568 0.223751 163 218 204
0.994054 0.601394 0.260157 163 218 204
1.001350 0.865822 0.232775 163 218 204
0.981978 0.873424 0.220000 163 218 204
1.009790 0.809723 0.221178 163 218 204
0.989670 0.860078 0.212170 163 218 204
0.983710 0.824962 0.202567 163 218 204
1.007800 0.769525 0.229282 163 218 204
1.006970 0.761957 0.220992 163 218 204
0.986206 0.904368 0.201389 163 218 204
0.984368 0.870051 0.195643 163 218 204
0.989706 0.944218 0.218543 163 218 204
1.000310 0.963233 0.224249 163 218 204
0.990723 0.943190 0.203444 163 218 204
1.011890 0.965321 0.212388 163 218 204
1.016650 0.936612 0.188468 163 218 204
0.981452 0.875629 0.189301 163 218 204
1.008940 0.919532 0.174597 163 218 204
1.003410 0.846317 0.192994 163 218 204
0.983028 0.911808 0.171563 163 218 204
0.996820 0.250295 0.702033 163 218 204
1.004540 0.223563 0.814848 163 218 204
0.999299 0.215649 0.835053 163 218 204
0.994625 0.207340 0.804288 163 218 204
1.001490 0.201499 0.825798 163 218 204
1.009620 0.273108 0.686463 163 218 204
0.988560 0.266071 0.659495 163 218 204
0.996330 0.265287 0.636960 163 218 204
0.994398 0.268530 0.622791 163 218 204
0.999832 0.263464 0.629978 163 218 204
0.983574 0.249749 0.682967 163 218 204
0.984466 0.234631 0.721976 163 218 204
0.986310 0.415022 0.401847 163 218 204
0.994285 0.404420 0.407691 163 218 204
1.006630 0.390626 0.417234 163 218 204
0.993771 0.218654 0.705910 163 218 204
1.017640 0.207639 0.715225 163 218 204
1.008910 0.198811 0.717850 163 218 204
0.989300 0.187366 0.935843 163 218 204
1.010720 0.184057 0.931740 163 218 204
0.988798 0.204131 0.748656 163 218 204
1.001800 0.196644 0.750631 163 218 204
1.003360 0.197175 0.726135 163 218 204
1.013910 0.187119 0.767760 163 218 204
1.008270 0.173784 0.765027 163 218 204
1.004810 0.215772 0.984947 163 218 204
1.006500 0.173069 0.874126 163 218 204
1.014790 0.171594 0.860131 163 218 204
0.990183 0.174635 0.904015 163 218 204
1.011680 0.176098 0.918676 163 218 204
1.002250 0.167286 0.914088 163 218 204
1.002490 0.159380 0.873785 163 218 204
1.018710 0.147247 0.934595 163 218 204
1.007340 0.174702 0.982122 163 218 204
1.017840 0.159369 0.828308 163 218 204
1.017940 0.271359 0.532445 163 218 204
0.984344 0.264067 0.619080 163 218 204
0.989862 0.253225 0.568630 163 218 204
0.981490 0.238372 0.654887 163 218 204
1.005390 0.465224 0.353950 163 218 204
1.005640 0.438959 0.366924 163 218 204
0.998255 0.412918 0.375127 163 218 204
1.003690 0.426616 0.360125 163 218 204
0.988122 0.747126 0.216516 163 218 204
0.998206 0.786861 0.201573 163 218 204
1.004020 0.349658 0.446870 163 218 204
0.993423 0.370157 0.414016 163 218 204
1.003340 0.351093 0.425395 163 218 204
0.984350 0.382708 0.407059 163 218 204
1.002950 0.330109 0.470293 163 218 204
1.009930 0.415933 0.351472 163 218 204
1.015620 0.450283 0.334262 163 218 204
0.984139 0.401209 0.357137 163 218 204
1.007610 0.455830 0.311538 163 218 204
1.003110 0.457853 0.310828 163 218 204
1.010990 0.424325 0.322735 163 218 204
1.003070 0.482027 0.311630 163 218 204
1.002010 0.265683 0.513960 163 218 204
0.999893 0.261567 0.528976 163 218 204
1.004130 0.301149 0.479666 163 218 204
1.005920 0.245209 0.548921 163 218 204
1.001390 0.228537 0.574141 163 218 204
1.007470 0.232721 0.605468 163 218 204
1.011300 0.215748 0.607819 163 218 204
0.990081 0.218389 0.600379 163 218 204
1.010670 0.231905 0.555822 163 218 204
1.005320 0.221351 0.559932 163 218 204
1.014300 0.211757 0.624395 163 218 204
0.990998 0.205355 0.591995 163 218 204
0.981407 0.301525 0.466861 163 218 204
0.981922 0.282421 0.469875 163 218 204
1.006130 0.334099 0.433660 163 218 204
1.014740 0.279779 0.481573 163 218 204
1.005600 0.268637 0.481286 163 218 204
0.984670 0.261188 0.503236 163 218 204
0.996957 0.515191 0.313950 163 218 204
1.000080 0.475193 0.302625 163 218 204
0.997338 0.517148 0.306676 163 218 204
1.014520 0.523158 0.296604 163 218 204
1.002520 0.506412 0.279964 163 218 204
1.013470 0.559599 0.291967 163 218 204
1.007820 0.532067 0.263008 163 218 204
0.983035 0.498134 0.276477 163 218 204
0.984578 0.487204 0.278366 163 218 204
1.004320 0.732490 0.200330 163 218 204
0.982714 0.720486 0.196725 163 218 204
1.014590 0.754009 0.194797 163 218 204
1.018460 0.737431 0.183828 163 218 204
0.982426 0.690294 0.198507 163 218 204
1.017720 0.749456 0.182325 163 218 204
0.981522 0.661733 0.217953 163 218 204
0.985983 0.641371 0.227641 163 218 204
0.982125 0.669087 0.215575 163 218 204
1.002620 0.601878 0.243221 163 218 204
0.982781 0.615630 0.228291 163 218 204
1.001500 0.643749 0.198295 163 218 204
0.988161 0.609961 0.226517 163 218 204
0.989314 0.634513 0.201302 163 218 204
1.014260 0.658425 0.181293 163 218 204
0.992445 0.643654 0.184086 163 218 204
1.006470 0.596195 0.245978 163 218 204
0.994277 0.580963 0.254524 163 218 204
1.002430 0.591266 0.225282 163 218 204
0.994559 0.563645 0.227289 163 218 204
1.011750 0.703037 0.170802 163 218 204
0.981535 0.683369 0.171231 163 218 204
0.985786 0.596538 0.209964 163 218 204
1.015490 0.862226 0.176510 163 218 204
0.984123 0.829166 0.181421 163 218 204
0.984729 0.792352 0.189108 163 218 204
1.006230 0.805385 0.176322 163 218 204
1.003890 0.787443 0.173755 163 218 204
0.982307 0.845713 0.163927 163 218 204
0.997077 0.807930 0.161673 163 218 204
1.003070 0.817367 0.154060 163 218 204
1.000850 0.799222 0.150253 163 218 204
1.008280 0.912500 0.157774 163 218 204
1.003830 0.936915 0.167544 163 218 204
0.983241 0.910054 0.148738 163 218 204
1.018670 0.896079 0.159924 163 218 204
1.009930 0.869570 0.152165 163 218 204
1.005850 0.855631 0.151460 163 218 204
0.993384 0.987439 0.188733 163 218 204
1.018640 0.994319 0.222319 163 218 204
0.990844 1.000380 0.200973 163 218 204
0.982494 1.015410 0.213691 163 218 204
1.000900 0.950173 0.149453 163 218 204
1.017560 0.913945 0.133945 163 218 204
1.016700 0.875872 0.139128 163 218 204
0.982807 0.933294 0.129280 163 218 204
1.017830 0.830275 0.148574 163 218 204
0.996353 0.213468 0.667309 163 218 204
1.008290 0.226596 0.656107 163 218 204
0.995095 0.204065 0.675057 163 218 204
0.989208 0.172691 0.801276 163 218 204
1.004840 0.169422 0.786397 163 218 204
1.017230 0.158589 0.787328 163 218 204
0.986442 0.184546 0.717272 163 218 204
1.003400 0.369480 0.368638 163 218 204
1.018450 0.365876 0.375932 163 218 204
0.996323 0.186709 0.670647 163 218 204
1.005160 0.174513 0.734052 163 218 204
0.993925 0.185526 0.661288 163 218 204
0.999953 0.160400 0.712785 163 218 204
1.010490 0.176223 0.670756 163 218 204
1.016650 0.150126 0.705965 163 218 204
0.994289 0.150787 0.700929 163 218 204
0.998377 0.142577 0.950215 163 218 204
1.007580 0.148371 0.962122 163 218 204
0.985119 0.146185 0.905378 163 218 204
1.018610 0.146077 0.967445 163 218 204
0.999321 0.160200 0.764400 163 218 204
1.006730 0.159706 0.755218 163 218 204
0.985452 0.150425 0.751227 163 218 204
1.010820 0.142709 0.753009 163 218 204
1.008480 0.135070 0.746711 163 218 204
0.986627 0.141421 0.733380 163 218 204
0.981419 0.126555 0.780979 163 218 204
1.004080 0.126174 0.908373 163 218 204
0.992181 0.121726 0.844118 163 218 204
0.989518 0.108391 0.919322 163 218 204
1.002750 0.109291 0.848536 163 218 204
0.993282 0.106399 0.890445 163 218 204
1.014050 0.093362 0.928405 163 218 204
1.016530 0.091433 0.939414 163 218 204
1.007260 0.098083 0.969703 163 218 204
1.004000 0.110843 0.982154 163 218 204
0.984438 0.102706 0.908152 163 218 204
1.015480 0.138283 1.012380 163 218 204
1.016290 0.125919 0.809862 163 218 204
1.004870 0.127482 0.806964 163 218 204
0.998081 0.115472 0.829547 163 218 204
0.992360 0.235599 0.518714 163 218 204
1.006950 0.226434 0.523737 163 218 204
1.014790 0.243469 0.491498 163 218 204
0.998813 0.234687 0.490842 163 218 204
1.000460 0.215250 0.528810 163 218 204
0.997430 0.206931 0.548254 163 218 204
0.998936 0.200150 0.585843 163 218 204
0.989806 0.185076 0.642309 163 218 204
0.996378 0.423806 0.319809 163 218 204
1.013350 0.404007 0.340701 163 218 204
1.005480 0.422907 0.316738 163 218 204
0.985607 0.381364 0.343529 163 218 204
1.005540 0.359435 0.363715 163 218 204
0.983812 0.398060 0.314030 163 218 204
0.997912 0.744478 0.167652 163 218 204
1.003260 0.770821 0.158509 163 218 204
1.016860 0.780590 0.155283 163 218 204
0.996829 0.763585 0.153885 163 218 204
1.009290 0.321111 0.420820 163 218 204
0.991959 0.329594 0.400482 163 218 204
0.993767 0.296252 0.433584 163 218 204
0.982179 0.341135 0.373222 163 218 204
1.006280 0.336144 0.372430 163 218 204
1.002460 0.293709 0.426520 163 218 204
0.997698 0.353772 0.356885 163 218 204
0.981633 0.369030 0.343002 163 218 204
1.001090 0.422347 0.294981 163 218 204
1.007410 0.389581 0.300350 163 218 204
1.004720 0.456334 0.286663 163 218 204
0.986372 0.435546 0.288612 163 218 204
1.013520 0.465560 0.280183 163 218 204
1.017400 0.430942 0.280669 163 218 204
0.981437 0.360179 0.339441 163 218 204
0.990675 0.372121 0.311103 163 218 204
1.007460 0.459863 0.270016 163 218 204
0.993528 0.248985 0.479851 163 218 204
0.986919 0.271312 0.464644 163 218 204
0.993899 0.282648 0.438658 163 218 204
1.009290 0.205986 0.533354 163 218 204
1.015140 0.203572 0.551632 163 218 204
1.008190 0.198161 0.606418 163 218 204
1.015940 0.185440 0.549136 163 218 204
1.014710 0.181957 0.609308 163 218 204
0.984248 0.186354 0.629436 163 218 204
1.001790 0.171356 0.574016 163 218 204
1.005050 0.163153 0.585369 163 218 204
1.002640 0.185626 0.659259 163 218 204
0.990534 0.160544 0.626533 163 218 204
1.008070 0.158533 0.643469 163 218 204
0.983744 0.158964 0.568075 163 218 204
0.982777 0.252202 0.464762 163 218 204
1.006940 0.246319 0.465025 163 218 204
0.991130 0.253729 0.434836 163 218 204
1.000860 0.500642 0.249482 163 218 204
1.017830 0.527794 0.246514 163 218 204
0.999784 0.512537 0.242877 163 218 204
1.011360 0.494606 0.240641 163 218 204
0.982368 0.495475 0.227481 163 218 204
1.015980 0.552492 0.215682 163 218 204
1.002870 0.547812 0.211953 163 218 204
0.995634 0.557275 0.209007 163 218 204
0.991433 0.464593 0.240916 163 218 204
1.000140 0.733001 0.156093 163 218 204
1.011810 0.757804 0.148993 163 218 204
0.982915 0.729822 0.143573 163 218 204
0.983936 0.719131 0.140366 163 218 204
0.991839 0.671136 0.162226 163 218 204
0.996746 0.767175 0.142499 163 218 204
0.992348 0.662566 0.151738 163 218 204
1.012120 0.584740 0.196025 163 218 204
0.987838 0.568126 0.205225 163 218 204
1.012250 0.636212 0.176028 163 218 204
1.013530 0.628637 0.168769 163 218 204
1.001150 0.618911 0.160399 163 218 204
1.018040 0.655127 0.148442 163 218 204
1.011150 0.640547 0.136024 163 218 204
1.017510 0.674452 0.133158 163 218 204
0.991330 0.658456 0.125760 163 218 204
0.982442 0.591163 0.157032 163 218 204
0.988755 0.565559 0.185764 163 218 204
0.984283 0.544868 0.198578 163 218 204
0.999945 0.707441 0.123490 163 218 204
1.016450 0.723844 0.125666 163 218 204
1.004370 0.859472 0.128061 163 218 204
0.981597 0.836753 0.129507 163 218 204
0.987267 0.797783 0.127054 163 218 204
1.007930 0.822026 0.121994 163 218 204
0.996199 0.801324 0.106113 163 218 204
0.994306 0.767168 0.120688 163 218 204
1.005450 0.887643 0.117255 163 218 204
1.003990 0.900940 0.107825 163 218 204
0.993246 0.959241 0.126142 163 218 204
0.982806 0.949480 0.118853 163 218 204
1.009040 0.979728 0.132915 163 218 204
0.986955 0.895832 0.093035 163 218 204
0.986065 0.927283 0.092527 163 218 204
0.951133 0.988688 0.186019 163 218 204
0.998853 1.013540 0.154128 163 218 204
1.002790 0.966943 0.107176 163 218 204
1.014890 0.966573 0.108814 163 218 204
0.962183 0.983552 0.127020 163 218 204
0.983823 0.964926 0.098202 163 218 204
1.015100 0.875423 0.095230 163 218 204
1.015790 0.935829 0.083791 163 218 204
1.014780 0.814612 0.093688 163 218 204
1.000720 0.104875 0.787314 163 218 204
0.988365 0.336386 0.340516 163 218 204
0.992741 0.326998 0.347759 163 218 204
1.009180 0.144539 0.661751 163 218 204
1.005160 0.140926 0.651350 163 218 204
0.990072 0.153703 0.623934 163 218 204
0.994062 0.130151 0.655027 163 218 204
1.000390 0.117127 0.712474 163 218 204
1.015370 0.117363 0.689989 163 218 204
0.982849 0.098428 0.702738 163 218 204
0.983741 0.098792 0.905191 163 218 204
0.997223 0.092372 0.906613 163 218 204
0.989854 0.101192 0.733435 163 218 204
1.011040 0.091911 0.735669 163 218 204
0.982403 0.093938 0.721749 163 218 204
0.988900 0.091621 0.709155 163 218 204
0.986872 0.108047 0.806509 163 218 204
0.987741 0.082514 0.796230 163 218 204
0.998063 0.086939 0.872985 163 218 204
1.003140 0.092285 0.864776 163 218 204
1.001960 0.070440 0.918509 163 218 204
0.995617 0.095688 0.848896 163 218 204
1.010030 0.078835 0.834611 163 218 204
0.995324 0.074620 0.851597 163 218 204
0.982933 0.062354 0.938444 163 218 204
1.005570 0.063634 0.890313 163 218 204
1.008290 0.059287 0.938212 163 218 204
0.983524 0.054851 0.941756 163 218 204
1.011870 0.076851 0.966528 163 218 204
1.017930 0.071969 0.960453 163 218 204
1.005390 0.079097 0.978847 163 218 204
1.003960 0.046448 0.956724 163 218 204
1.016130 0.079759 0.988120 163 218 204
1.005480 0.053768 0.981071 163 218 204
0.983935 0.203411 0.500237 163 218 204
0.993508 0.206201 0.492935 163 218 204
1.009690 0.211967 0.467022 163 218 204
0.983345 0.186425 0.469319 163 218 204
1.012200 0.192499 0.453104 163 218 204
1.012510 0.175887 0.500700 163 218 204
1.004490 0.155512 0.535628 163 218 204
0.981404 0.159482 0.519470 163 218 204
0.992587 0.141287 0.613116 163 218 204
1.006270 0.367620 0.303972 163 218 204
0.990623 0.312460 0.359756 163 218 204
0.999580 0.324728 0.324737 163 218 204
0.989642 0.320441 0.326765 163 218 204
1.017340 0.364501 0.295225 163 218 204
0.999373 0.351736 0.291569 163 218 204
0.989638 0.754669 0.113254 163 218 204
0.991285 0.294510 0.386112 163 218 204
0.998291 0.275542 0.409466 163 218 204
1.017850 0.302446 0.374022 163 218 204
1.004920 0.267562 0.409464 163 218 204
1.013830 0.261020 0.394256 163 218 204
