ply
format ascii 1.0
comment author: F. Lafarge
element vertex 1199
property float x
property float y
property float z
property uchar red
property uchar green
property uchar blue
end_header
-0.252601 0.982445 1.129990 165 196 170
-0.263179 0.999544 1.134230 165 196 170
-0.237732 0.988875 1.086830 165 196 170
-0.333566 0.988438 0.481387 165 196 170
-0.350275 1.018370 0.454657 165 196 170
-0.378773 0.998292 0.433965 165 196 170
-0.325495 1.016000 0.452429 165 196 170
-0.428737 1.008360 0.403176 165 196 170
-0.415232 0.990472 0.406051 165 196 170
-0.407836 0.996527 0.389335 165 196 170
-0.408124 0.993524 0.385657 165 196 170
-0.448747 1.016910 0.371031 165 196 170
-0.360913 1.009190 0.421444 165 196 170
-0.353853 1.000850 0.410040 165 196 170
-0.304060 0.995096 0.478031 165 196 170
-0.319448 1.016560 0.454433 165 196 170
-0.253610 0.989743 0.547236 165 196 170
-0.248815 0.986261 0.571672 165 196 170
-0.242452 1.006510 0.573328 165 196 170
-0.242080 1.004220 0.553412 165 196 170
-0.258150 0.995966 0.521527 165 196 170
-0.221366 1.001380 0.560772 165 196 170
-0.216853 1.017070 0.555407 165 196 170
-0.485562 1.012520 0.358128 165 196 170
-0.486524 1.006470 0.338440 165 196 170
-0.501355 0.999456 0.321778 165 196 170
-0.481935 1.004320 0.331284 165 196 170
-0.513699 1.004230 0.309449 165 196 170
-0.436123 0.997155 0.346697 165 196 170
-0.166371 1.017290 0.770735 165 196 170
-0.157176 1.012240 0.754468 165 196 170
-0.189720 0.983261 0.675114 165 196 170
-0.164406 0.985327 0.686392 165 196 170
-0.159079 0.987722 0.719001 165 196 170
-0.148371 1.015840 0.681968 165 196 170
-0.157862 1.007920 0.954227 165 196 170
-0.168561 1.008530 0.985570 165 196 170
-0.150082 1.006770 0.920134 165 196 170
-0.155241 0.985438 0.989503 165 196 170
-0.147343 1.007540 0.903592 165 196 170
-0.139169 1.011020 0.892869 165 196 170
-0.133705 1.001760 0.898296 165 196 170
-0.235703 0.991635 1.063440 165 196 170
-0.219723 0.992927 1.059840 165 196 170
-0.229338 0.994866 1.078180 165 196 170
-0.209160 0.991571 1.085960 165 196 170
-0.190301 0.981949 1.049860 165 196 170
-0.197194 1.008650 1.010310 165 196 170
-0.201862 1.012740 1.017150 165 196 170
-0.201574 1.003650 1.013420 165 196 170
-0.194486 1.018210 1.012430 165 196 170
-0.195288 1.012120 1.044830 165 196 170
-0.126468 1.010150 0.801303 165 196 170
-0.133067 0.987289 0.785012 165 196 170
-0.118551 1.009080 0.821428 165 196 170
-0.113929 0.983988 0.861953 165 196 170
-0.110824 1.012110 0.849256 165 196 170
-0.106658 0.993849 0.824342 165 196 170
-0.093958 0.991790 0.839468 165 196 170
-0.724252 1.010050 0.229161 165 196 170
-0.781748 0.995099 0.217180 165 196 170
-0.797956 0.981684 0.207100 165 196 170
-0.766873 1.011920 0.210391 165 196 170
-0.838013 0.996914 0.209359 165 196 170
-0.800786 1.015420 0.169811 165 196 170
-0.762930 0.995685 0.195219 165 196 170
-0.739834 0.982851 0.195130 165 196 170
-0.951159 0.995152 0.212344 165 196 170
-0.677794 1.003780 0.231441 165 196 170
-0.639019 1.005990 0.272373 165 196 170
-0.669721 1.015940 0.223347 165 196 170
-0.623536 1.007400 0.256770 165 196 170
-0.658276 1.015330 0.216991 165 196 170
-0.625877 0.995016 0.265801 165 196 170
-0.683759 1.003640 0.207591 165 196 170
-0.591450 1.002350 0.268210 165 196 170
-0.551569 1.015200 0.275165 165 196 170
-0.574642 0.997984 0.244975 165 196 170
-0.415533 1.000570 0.372984 165 196 170
-0.420321 0.987253 0.375561 165 196 170
-0.181831 1.011410 0.638143 165 196 170
-0.182352 1.001390 0.601768 165 196 170
-0.172862 1.008130 0.611209 165 196 170
-0.276919 1.005750 1.150070 165 196 170
-0.274114 1.001330 1.164150 165 196 170
-0.254957 0.991233 1.159300 165 196 170
-0.252475 0.997472 1.159910 165 196 170
-0.311273 1.017890 1.197410 165 196 170
-0.296505 0.995109 1.197940 165 196 170
-0.262123 0.994003 1.193990 165 196 170
-0.233504 0.990084 1.145300 165 196 170
-0.227390 0.983021 1.105880 165 196 170
-0.224043 0.984117 1.159520 165 196 170
-0.228071 1.014110 1.093700 165 196 170
-0.291653 0.990910 0.456836 165 196 170
-0.277403 0.989011 0.476164 165 196 170
-0.340873 0.996747 0.423634 165 196 170
-0.305131 0.991949 0.429490 165 196 170
-0.352558 0.999671 0.411401 165 196 170
-0.286040 1.015710 0.454170 165 196 170
-0.362140 0.992957 0.389086 165 196 170
-0.357016 0.988219 0.386827 165 196 170
-0.344545 0.992088 0.388483 165 196 170
-0.307479 1.011800 0.405592 165 196 170
-0.301603 0.988381 0.407350 165 196 170
-0.385505 0.989113 0.373680 165 196 170
-0.404497 1.007890 0.341728 165 196 170
-0.380741 1.008320 0.343358 165 196 170
-0.338673 0.985184 0.379132 165 196 170
-0.270176 0.993994 0.477457 165 196 170
-0.252062 0.987961 0.475044 165 196 170
-0.251637 0.996160 0.496442 165 196 170
-0.265768 1.015430 0.438104 165 196 170
-0.221160 0.991941 0.516326 165 196 170
-0.233586 0.981217 0.502106 165 196 170
-0.213186 1.015690 0.532661 165 196 170
-0.205037 1.002120 0.521522 165 196 170
-0.204903 1.018640 0.547953 165 196 170
-0.172915 1.000440 0.564512 165 196 170
-0.165454 0.981664 0.570144 165 196 170
-0.464517 1.004480 0.294870 165 196 170
-0.481621 1.000020 0.284493 165 196 170
-0.478526 0.985974 0.278275 165 196 170
-0.467100 1.014610 0.282714 165 196 170
-0.427134 1.010730 0.299060 165 196 170
-0.132025 0.983052 0.762778 165 196 170
-0.104868 1.013430 0.764700 165 196 170
-0.129103 1.002440 0.673078 165 196 170
-0.119112 1.017050 0.653956 165 196 170
-0.109857 1.016100 0.648593 165 196 170
-0.098876 1.000430 0.692642 165 196 170
-0.128146 0.986152 0.976320 165 196 170
-0.113535 1.012300 0.926990 165 196 170
-0.151204 1.010760 1.007070 165 196 170
-0.116535 1.000430 0.993777 165 196 170
-0.129347 1.005140 1.016730 165 196 170
-0.124345 1.003050 0.901051 165 196 170
-0.110441 0.993021 0.997008 165 196 170
-0.190247 0.983406 1.059720 165 196 170
-0.190030 1.004290 1.068160 165 196 170
-0.173573 0.986994 1.095090 165 196 170
-0.185654 1.012110 1.110350 165 196 170
-0.168239 0.982559 1.072220 165 196 170
-0.085855 1.013450 0.772599 165 196 170
-0.080927 0.990490 0.811103 165 196 170
-0.078426 1.009120 0.861745 165 196 170
-0.082308 0.991854 0.867769 165 196 170
-0.073029 0.990453 0.870580 165 196 170
-0.068328 1.000410 0.873188 165 196 170
-0.062389 0.999018 0.888085 165 196 170
-0.049415 1.004590 0.820449 165 196 170
-0.039469 0.990021 0.859531 165 196 170
-0.055581 0.985988 0.795069 165 196 170
-0.794806 1.000420 0.160888 165 196 170
-0.800028 0.999979 0.152790 165 196 170
-0.828632 1.009060 0.164606 165 196 170
-0.759579 1.006950 0.158329 165 196 170
-0.873036 0.986718 0.203884 165 196 170
-0.850464 1.018400 0.159447 165 196 170
-0.782219 1.007680 0.133538 165 196 170
-0.803598 0.981883 0.140468 165 196 170
-0.829445 0.999699 0.129771 165 196 170
-0.817475 0.986456 0.126361 165 196 170
-0.751290 0.991001 0.148361 165 196 170
-0.711238 1.005270 0.148668 165 196 170
-0.918882 1.006810 0.182041 165 196 170
-0.912476 1.015910 0.195800 165 196 170
-0.941488 0.993467 0.165794 165 196 170
-0.930718 1.009700 0.164885 165 196 170
-0.944923 0.999728 0.158808 165 196 170
-0.659849 0.992151 0.188838 165 196 170
-0.626173 0.981132 0.235962 165 196 170
-0.621031 1.012800 0.232628 165 196 170
-0.630143 1.004800 0.196021 165 196 170
-0.656016 1.006340 0.171754 165 196 170
-0.604837 1.017440 0.220501 165 196 170
-0.615454 0.999005 0.204668 165 196 170
-0.630253 0.992305 0.177018 165 196 170
-0.654745 1.000750 0.163296 165 196 170
-0.700630 1.011310 0.152350 165 196 170
-0.554747 1.011090 0.227573 165 196 170
-0.516714 1.010000 0.231605 165 196 170
-0.534479 0.998801 0.223114 165 196 170
-0.574224 0.988266 0.199816 165 196 170
-0.532865 0.995626 0.217122 165 196 170
-0.545857 1.009650 0.204060 165 196 170
-0.569715 0.982176 0.193827 165 196 170
-0.386364 0.986549 0.317777 165 196 170
-0.164526 0.988661 0.592114 165 196 170
-0.136162 0.987217 0.607276 165 196 170
-0.138910 1.016980 0.577013 165 196 170
-0.128243 0.984966 0.615515 165 196 170
-0.139783 1.001770 0.559854 165 196 170
-0.261325 0.985408 1.198260 165 196 170
-0.207419 0.983389 1.165320 165 196 170
-0.258068 1.004810 1.235760 165 196 170
-0.244659 1.006140 1.239500 165 196 170
-0.203630 0.984415 1.150960 165 196 170
-0.189532 0.992221 1.143220 165 196 170
-0.197711 1.018530 1.162960 165 196 170
-0.191677 0.986085 1.190200 165 196 170
-0.187095 1.016540 1.150610 165 196 170
-0.248668 0.991753 0.468521 165 196 170
-0.275759 1.008370 0.412596 165 196 170
-0.241147 0.994228 0.470114 165 196 170
-0.293908 1.008620 0.392211 165 196 170
-0.283009 1.006310 0.396919 165 196 170
-0.283353 0.999496 0.376821 165 196 170
-0.353104 1.014390 0.336632 165 196 170
-0.306398 0.994603 0.368488 165 196 170
-0.313255 0.982740 0.343508 165 196 170
-0.257426 1.006160 0.396535 165 196 170
-0.258659 0.994079 0.371482 165 196 170
-0.385732 1.002300 0.310930 165 196 170
-0.373032 1.013140 0.309200 165 196 170
-0.400406 0.998263 0.295095 165 196 170
-0.383020 0.996844 0.298744 165 196 170
-0.347105 0.996397 0.325405 165 196 170
-0.356961 0.986673 0.314251 165 196 170
-0.338258 1.017790 0.320044 165 196 170
-0.304354 1.001610 0.344179 165 196 170
-0.202827 1.006820 0.489531 165 196 170
-0.227125 0.997554 0.419569 165 196 170
-0.224931 1.003950 0.417467 165 196 170
-0.172012 0.995057 0.508341 165 196 170
-0.162565 0.981344 0.542675 165 196 170
-0.159514 0.983995 0.548157 165 196 170
-0.128119 0.983204 0.528802 165 196 170
-0.126844 0.987466 0.528546 165 196 170
-0.442877 1.007630 0.265930 165 196 170
-0.430345 0.996376 0.270640 165 196 170
-0.419395 1.009080 0.283014 165 196 170
-0.417338 1.000210 0.280206 165 196 170
-0.447721 0.999063 0.243735 165 196 170
-0.441642 0.991026 0.240331 165 196 170
-0.080866 0.987253 0.757033 165 196 170
-0.072134 0.999148 0.750376 165 196 170
-0.091308 1.009750 0.710402 165 196 170
-0.107783 1.015390 0.635282 165 196 170
-0.081112 1.014430 0.704423 165 196 170
-0.073459 1.015370 0.641568 165 196 170
-0.075494 0.998004 0.640067 165 196 170
-0.105024 1.017220 0.596883 165 196 170
-0.062492 0.996459 0.623115 165 196 170
-0.064267 0.985093 0.690172 165 196 170
-0.061528 1.005880 0.706449 165 196 170
-0.061089 1.017010 0.701286 165 196 170
-0.092808 1.017940 0.974305 165 196 170
-0.091903 1.005380 1.008540 165 196 170
-0.079033 1.012370 0.962062 165 196 170
-0.077851 0.990230 0.928210 165 196 170
-0.059401 1.003760 0.909794 165 196 170
-0.124529 1.006510 1.036840 165 196 170
-0.073363 1.014300 0.993230 165 196 170
-0.066645 1.003510 1.003970 165 196 170
-0.089116 0.996578 1.050450 165 196 170
-0.063826 1.000720 0.897766 165 196 170
-0.069972 0.986415 1.022870 165 196 170
-0.161491 0.989817 1.089950 165 196 170
-0.145721 0.994069 1.106670 165 196 170
-0.137644 1.003910 1.091210 165 196 170
-0.186341 1.014430 1.126780 165 196 170
-0.171922 1.001670 1.153680 165 196 170
-0.121092 0.981699 1.079200 165 196 170
-0.118373 0.994526 1.072620 165 196 170
-0.047151 1.008660 0.789728 165 196 170
-0.036204 0.991681 0.777594 165 196 170
-0.035919 0.992133 0.795379 165 196 170
-0.039085 1.018060 0.818785 165 196 170
-0.040532 1.007840 0.889676 165 196 170
-0.051449 1.012440 0.918301 165 196 170
-0.033816 0.994790 0.920463 165 196 170
-0.016099 0.984423 0.890207 165 196 170
-0.021661 1.006110 0.812056 165 196 170
-0.023683 0.994021 0.805941 165 196 170
-0.020588 0.994549 0.781753 165 196 170
-0.000231 1.016490 0.880806 165 196 170
0.016747 0.984218 0.871901 165 196 170
-0.031743 0.984368 0.752091 165 196 170
-0.007729 1.008470 0.774912 165 196 170
-0.758798 1.007730 0.129643 165 196 170
-0.795864 0.992172 0.110760 165 196 170
-0.782215 0.996930 0.102490 165 196 170
-0.795073 1.006230 0.097520 165 196 170
-0.741532 0.995737 0.130950 165 196 170
-0.711137 1.012090 0.125885 165 196 170
-0.900794 1.009220 0.173741 165 196 170
-0.900600 1.008650 0.153113 165 196 170
-0.901793 1.011550 0.139057 165 196 170
-0.787334 0.987139 0.081014 165 196 170
-0.812293 1.001720 0.085559 165 196 170
-0.753146 0.996033 0.081749 165 196 170
-0.803258 0.999079 0.077359 165 196 170
-0.839887 0.991301 0.092790 165 196 170
-0.683441 1.017910 0.124462 165 196 170
-0.707006 1.001000 0.104164 165 196 170
-0.664446 1.009400 0.120346 165 196 170
-0.696440 0.993831 0.097087 165 196 170
-0.730978 1.009640 0.096866 165 196 170
-0.721192 1.001160 0.091973 165 196 170
-0.931132 0.999035 0.144332 165 196 170
-0.933336 0.987214 0.134003 165 196 170
-0.972865 1.010010 0.137098 165 196 170
-0.635608 0.986045 0.146387 165 196 170
-0.608507 0.985631 0.197971 165 196 170
-0.591022 1.000940 0.181294 165 196 170
-0.600797 0.996683 0.158268 165 196 170
-0.611545 0.985719 0.138556 165 196 170
-0.581059 0.989171 0.154759 165 196 170
-0.637468 0.983968 0.119294 165 196 170
-0.516079 0.981911 0.225051 165 196 170
-0.541831 1.003040 0.181261 165 196 170
-0.528781 1.007760 0.178619 165 196 170
-0.517403 0.995838 0.183665 165 196 170
-0.484426 1.006230 0.222392 165 196 170
-0.494785 0.983475 0.206128 165 196 170
-0.470237 0.996445 0.197157 165 196 170
-0.517870 0.993171 0.164844 165 196 170
-0.543843 1.001980 0.144151 165 196 170
-0.107182 1.011800 0.563281 165 196 170
-0.108958 1.018570 0.551551 165 196 170
-0.101060 1.018720 0.555499 165 196 170
-0.110395 1.016750 0.540823 165 196 170
-0.102745 0.993405 0.549191 165 196 170
-0.102713 0.986821 0.519555 165 196 170
-0.204315 1.001770 1.206870 165 196 170
-0.174967 1.016250 1.163590 165 196 170
-0.231756 1.012050 1.259170 165 196 170
-0.199260 1.017000 1.227260 165 196 170
-0.161582 0.991416 1.218680 165 196 170
-0.247365 0.996711 0.380211 165 196 170
-0.228973 0.997216 0.393035 165 196 170
-0.215738 0.999223 0.393326 165 196 170
-0.198598 0.983138 0.438555 165 196 170
-0.295992 1.006740 0.337733 165 196 170
-0.275694 1.008820 0.334026 165 196 170
-0.260175 1.010700 0.333325 165 196 170
-0.260264 1.008110 0.323616 165 196 170
-0.300416 0.989533 0.307418 165 196 170
-0.211773 1.007130 0.388253 165 196 170
-0.205059 1.011900 0.403170 165 196 170
-0.202069 1.004320 0.381146 165 196 170
-0.383127 1.010910 0.244726 165 196 170
-0.343893 0.985937 0.265989 165 196 170
-0.163354 0.985236 0.484980 165 196 170
-0.176349 1.018050 0.450487 165 196 170
-0.181344 1.016950 0.439718 165 196 170
-0.196776 0.990264 0.376227 165 196 170
-0.172620 0.984544 0.431076 165 196 170
-0.180902 1.011570 0.384734 165 196 170
-0.096023 0.981349 0.520744 165 196 170
-0.075067 0.998969 0.538325 165 196 170
-0.411745 1.015650 0.239218 165 196 170
-0.410376 1.013320 0.235430 165 196 170
-0.429482 0.999716 0.205655 165 196 170
-0.448247 1.016350 0.196631 165 196 170
-0.036011 0.987155 0.716838 165 196 170
-0.025453 1.018450 0.736474 165 196 170
-0.069302 1.011550 0.592214 165 196 170
-0.029675 0.997042 0.696324 165 196 170
-0.042337 1.008620 0.642171 165 196 170
-0.032908 1.011040 0.642561 165 196 170
-0.033251 1.000210 0.632425 165 196 170
-0.045700 0.993937 0.604868 165 196 170
-0.063088 0.996633 0.582505 165 196 170
-0.075915 0.995079 0.577030 165 196 170
-0.076816 0.994165 0.569453 165 196 170
-0.050952 1.002920 0.573981 165 196 170
-0.013023 1.009180 0.621518 165 196 170
-0.017793 1.005410 0.697162 165 196 170
-0.019033 1.009590 0.688536 165 196 170
-0.015458 0.997593 0.674223 165 196 170
-0.014807 0.989748 0.660510 165 196 170
0.002365 1.003200 0.717691 165 196 170
-0.056346 1.008950 0.946758 165 196 170
-0.049900 0.983323 0.993369 165 196 170
-0.064274 0.993465 1.052990 165 196 170
-0.038460 1.011600 0.948605 165 196 170
-0.023672 1.017960 0.941684 165 196 170
-0.114680 0.986605 1.074710 165 196 170
-0.086267 0.981974 1.067020 165 196 170
-0.039592 0.999308 1.020380 165 196 170
-0.046602 1.016310 1.035670 165 196 170
-0.043763 1.014440 1.034430 165 196 170
-0.026140 0.990821 1.014300 165 196 170
-0.097605 0.984752 1.087880 165 196 170
-0.082903 0.998393 1.091140 165 196 170
-0.090442 1.006920 1.092250 165 196 170
-0.058686 0.986745 1.084150 165 196 170
-0.065247 0.993149 1.092100 165 196 170
-0.038376 1.011220 1.048680 165 196 170
-0.117572 1.007980 1.096410 165 196 170
-0.124467 1.015260 1.127210 165 196 170
-0.138088 0.989822 1.159020 165 196 170
-0.084637 0.986955 1.097800 165 196 170
0.009574 0.991103 0.908688 165 196 170
-0.017757 1.006850 0.969156 165 196 170
0.026958 0.985926 0.912732 165 196 170
0.024754 1.018170 0.882096 165 196 170
0.027264 1.008700 0.797949 165 196 170
0.029118 0.991776 0.796119 165 196 170
0.029951 0.982441 0.768634 165 196 170
-0.002870 0.984701 0.729672 165 196 170
0.051205 1.016780 0.851660 165 196 170
0.065246 1.013320 0.869386 165 196 170
0.061363 1.002950 0.839203 165 196 170
0.013557 0.997843 0.732478 165 196 170
0.013815 1.003030 0.732679 165 196 170
0.036010 0.992956 0.776620 165 196 170
-0.761741 0.986521 0.078694 165 196 170
-0.767791 0.987823 0.076633 165 196 170
-0.821045 1.002580 0.069702 165 196 170
-0.760586 0.992578 0.057137 165 196 170
-0.825359 0.993355 0.059386 165 196 170
-0.693838 0.981572 0.096743 165 196 170
-0.892234 1.014470 0.096857 165 196 170
-0.936630 1.011420 0.097930 165 196 170
-0.749287 0.983164 0.043400 165 196 170
-0.815760 1.001860 0.037034 165 196 170
-0.854878 1.014610 0.079429 165 196 170
-0.815255 1.015450 0.031746 165 196 170
-0.736310 1.017980 0.057315 165 196 170
-0.731210 0.993565 0.033479 165 196 170
-0.710410 1.014800 0.052433 165 196 170
-0.878479 1.007650 0.086251 165 196 170
-0.873947 1.009770 0.059250 165 196 170
-0.645135 1.008260 0.091430 165 196 170
-0.650469 0.996260 0.089946 165 196 170
-0.700269 0.990110 0.057460 165 196 170
-0.686893 0.982989 0.054825 165 196 170
-0.643385 0.986944 0.080143 165 196 170
-0.640960 0.986281 0.080203 165 196 170
-0.654963 0.998800 0.061295 165 196 170
-0.931060 0.985453 0.081579 165 196 170
-0.930743 1.002070 0.080798 165 196 170
-0.989703 1.011540 0.108658 165 196 170
-0.996246 1.005200 0.109543 165 196 170
-0.985010 0.998918 0.100621 165 196 170
-0.597878 1.010210 0.101799 165 196 170
-0.622252 0.992882 0.083411 165 196 170
-0.594770 1.017440 0.091530 165 196 170
-0.497456 0.983324 0.136200 165 196 170
-0.455874 0.983617 0.170516 165 196 170
-0.444375 1.013500 0.164373 165 196 170
-0.467750 1.005190 0.152794 165 196 170
-0.471887 1.010780 0.149716 165 196 170
-0.045388 1.014760 0.551255 165 196 170
-0.070688 0.986639 0.500249 165 196 170
-0.107191 0.983652 0.470133 165 196 170
-0.159659 1.001710 1.243920 165 196 170
-0.237889 0.987548 1.295850 165 196 170
-0.220312 0.986959 1.295510 165 196 170
-0.214567 0.982614 1.292570 165 196 170
-0.164397 1.013010 1.262260 165 196 170
-0.156864 0.987245 1.254670 165 196 170
-0.116621 0.984342 1.177770 165 196 170
-0.171628 1.002490 0.364868 165 196 170
-0.255700 1.006660 0.310433 165 196 170
-0.226631 1.013760 0.325423 165 196 170
-0.269661 0.993956 0.282597 165 196 170
-0.272536 1.015370 0.276753 165 196 170
-0.259846 1.013390 0.277680 165 196 170
-0.224172 0.990786 0.304304 165 196 170
-0.202857 1.013540 0.321971 165 196 170
-0.214312 1.008280 0.289003 165 196 170
-0.208867 0.996733 0.299601 165 196 170
-0.288908 1.004950 0.267725 165 196 170
-0.294081 1.016070 0.268676 165 196 170
-0.378475 0.999809 0.218613 165 196 170
-0.382403 1.016910 0.216365 165 196 170
-0.378204 0.998825 0.192113 165 196 170
-0.345475 1.016810 0.204532 165 196 170
-0.322728 1.010150 0.237876 165 196 170
-0.140005 1.016670 0.453366 165 196 170
-0.152282 1.002090 0.342112 165 196 170
-0.141365 1.008270 0.383467 165 196 170
-0.129796 0.993925 0.384978 165 196 170
-0.027930 0.991790 0.532236 165 196 170
-0.029857 0.998887 0.564009 165 196 170
-0.407257 0.989505 0.179275 165 196 170
-0.406001 1.004080 0.172791 165 196 170
-0.404531 1.017300 0.171934 165 196 170
-0.383978 0.983827 0.174937 165 196 170
0.002721 1.004240 0.684663 165 196 170
0.021412 0.985059 0.719362 165 196 170
0.002094 1.015340 0.667478 165 196 170
-0.008294 0.985733 0.619204 165 196 170
-0.007533 0.988768 0.606913 165 196 170
0.013380 1.006120 0.624874 165 196 170
0.017898 1.014850 0.611626 165 196 170
-0.015830 0.995370 0.556988 165 196 170
-0.016338 1.011830 0.549967 165 196 170
0.023024 1.014580 0.642934 165 196 170
0.029213 1.010780 0.586813 165 196 170
0.023411 1.011670 0.574844 165 196 170
0.046831 1.002200 0.621764 165 196 170
0.042003 1.004150 0.737119 165 196 170
0.055033 0.996802 0.738754 165 196 170
-0.006032 1.007520 0.987161 165 196 170
-0.010655 1.011010 1.016240 165 196 170
-0.023484 0.998040 1.060080 165 196 170
0.005066 0.982859 0.967210 165 196 170
0.005097 0.981650 0.975232 165 196 170
-0.073052 1.010320 1.102990 165 196 170
-0.014429 1.005450 1.047580 165 196 170
-0.008678 1.017050 1.054520 165 196 170
-0.003441 1.003190 1.066490 165 196 170
0.010708 0.984292 1.043000 165 196 170
-0.053498 0.997767 1.108720 165 196 170
-0.066106 1.009150 1.121500 165 196 170
-0.083210 1.017370 1.127730 165 196 170
-0.030226 1.006430 1.091520 165 196 170
-0.039347 1.014300 1.102510 165 196 170
-0.018884 1.010080 1.083870 165 196 170
-0.005921 1.011030 1.082880 165 196 170
-0.122248 0.992632 1.159780 165 196 170
0.045552 1.002700 0.933443 165 196 170
0.061836 0.996536 0.921479 165 196 170
0.055494 1.017700 0.937078 165 196 170
0.063471 1.013230 0.807760 165 196 170
0.061806 1.003700 0.814721 165 196 170
0.070694 1.001480 0.785392 165 196 170
0.069923 1.007600 0.815791 165 196 170
0.072420 1.013900 0.836768 165 196 170
0.080929 1.007140 0.837698 165 196 170
0.099897 1.015940 0.830759 165 196 170
0.107560 0.996387 0.890278 165 196 170
0.085464 0.981684 0.797858 165 196 170
-0.787375 0.984543 0.025787 165 196 170
-0.846698 1.001360 0.029306 165 196 170
-0.732172 0.990332 0.022795 165 196 170
-0.779822 1.015890 0.014998 165 196 170
-0.717601 0.996734 0.019988 165 196 170
-0.858555 0.993835 0.022449 165 196 170
-0.823397 0.992940 0.004530 165 196 170
-0.873475 1.005170 0.034038 165 196 170
-0.651012 0.987414 0.058021 165 196 170
-0.888119 1.017630 0.064236 165 196 170
-0.938531 1.010660 0.074321 165 196 170
-0.962393 1.006090 0.078274 165 196 170
-0.935122 0.997677 0.059513 165 196 170
-0.969024 0.988207 0.060826 165 196 170
-0.746714 0.982234 -0.004690 165 196 170
-0.778894 0.986355 0.002490 165 196 170
-0.716387 0.987290 0.001772 165 196 170
-0.759629 1.007190 -0.005870 165 196 170
-0.808949 0.993829 0.001204 165 196 170
-0.810463 0.990362 -0.000022 165 196 170
-0.813223 0.990708 -0.010330 165 196 170
-0.780091 0.999529 -0.002565 165 196 170
-0.702327 0.990024 -0.009723 165 196 170
-0.680684 1.004620 0.005481 165 196 170
-0.889443 1.013520 0.026995 165 196 170
-0.599355 1.000300 0.063412 165 196 170
-0.611478 1.017610 0.044541 165 196 170
-0.656034 1.010280 0.022395 165 196 170
-0.595313 1.008050 0.043228 165 196 170
-0.626639 1.012910 0.021232 165 196 170
-0.986259 0.994215 0.067820 165 196 170
-0.994817 0.994263 0.068633 165 196 170
-0.571193 0.997903 0.084736 165 196 170
-0.559450 1.011020 0.076600 165 196 170
-0.563546 0.998533 0.065304 165 196 170
-0.580492 0.991519 0.055926 165 196 170
-0.557238 1.017020 0.064750 165 196 170
-0.475411 0.988960 0.125126 165 196 170
-0.480721 1.007980 0.114409 165 196 170
-0.453295 0.996631 0.135556 165 196 170
-0.499081 1.018480 0.102354 165 196 170
-0.435737 0.988208 0.133353 165 196 170
-0.418852 1.003230 0.144557 165 196 170
-0.409293 0.993688 0.144939 165 196 170
-0.434699 1.010830 0.101146 165 196 170
0.002658 1.015390 0.542695 165 196 170
-0.087830 1.005090 0.465266 165 196 170
-0.114083 0.996902 1.269490 165 196 170
-0.122982 1.008190 1.292420 165 196 170
-0.098761 1.016180 1.221780 165 196 170
-0.204278 0.970586 1.294490 165 196 170
-0.191984 0.984778 1.323840 165 196 170
-0.158169 0.993834 1.313830 165 196 170
-0.073760 0.986800 1.160180 165 196 170
-0.162443 1.013870 0.330948 165 196 170
-0.139433 0.992673 0.338188 165 196 170
-0.123685 0.994566 0.378424 165 196 170
-0.156517 0.997421 0.313466 165 196 170
-0.125301 0.990609 0.327238 165 196 170
-0.250998 0.994535 0.263636 165 196 170
-0.187478 1.003970 0.292173 165 196 170
-0.197604 0.985783 0.278612 165 196 170
-0.246204 0.986658 0.244790 165 196 170
-0.226471 1.005780 0.259644 165 196 170
-0.292551 1.018300 0.238142 165 196 170
-0.279751 0.985185 0.227196 165 196 170
-0.257253 1.000840 0.218884 165 196 170
-0.173835 0.990698 0.295488 165 196 170
-0.209886 0.988226 0.251622 165 196 170
-0.162134 1.008410 0.264227 165 196 170
-0.304401 0.990934 0.219354 165 196 170
-0.373578 0.998287 0.186621 165 196 170
-0.359231 0.999237 0.180531 165 196 170
-0.333109 1.002400 0.195985 165 196 170
-0.342291 1.013350 0.176760 165 196 170
-0.367638 1.015650 0.143756 165 196 170
-0.328696 0.994522 0.168936 165 196 170
-0.311630 0.984155 0.190268 165 196 170
-0.324393 1.002730 0.158190 165 196 170
-0.118388 1.007200 0.327336 165 196 170
-0.097289 0.983423 0.336440 165 196 170
-0.110715 0.982102 0.302377 165 196 170
-0.112666 1.009060 0.397281 165 196 170
-0.095422 0.985067 0.367457 165 196 170
-0.077385 0.997334 0.401412 165 196 170
0.006468 0.988556 0.523719 165 196 170
-0.000794 1.007620 0.503884 165 196 170
0.014828 1.016980 0.532172 165 196 170
0.017998 0.998843 0.567054 165 196 170
0.001671 1.008550 0.480888 165 196 170
0.046497 1.003330 0.662152 165 196 170
0.070618 0.985353 0.707357 165 196 170
0.044510 0.991094 0.630120 165 196 170
0.048953 1.018070 0.627445 165 196 170
0.063677 1.014900 0.582825 165 196 170
0.071805 1.008890 0.607175 165 196 170
0.035396 1.012230 0.547741 165 196 170
0.036332 0.981768 0.537684 165 196 170
0.059978 0.985108 0.672588 165 196 170
0.096759 1.004440 0.594738 165 196 170
0.093295 0.988266 0.722815 165 196 170
0.099311 1.005450 0.741195 165 196 170
0.097604 1.018720 0.736863 165 196 170
0.101499 1.014040 0.728887 165 196 170
0.041291 0.992162 1.001470 165 196 170
0.006601 0.998139 1.062250 165 196 170
0.011317 1.008630 1.075660 165 196 170
-0.054938 1.011940 1.140440 165 196 170
-0.055934 1.015330 1.144540 165 196 170
0.018002 0.982496 1.086300 165 196 170
0.044640 0.986848 1.040140 165 196 170
0.045615 1.001270 1.024090 165 196 170
-0.026063 1.007110 1.135720 165 196 170
0.024591 0.994184 1.102360 165 196 170
0.031186 0.992454 1.091580 165 196 170
0.093555 1.013550 0.929822 165 196 170
0.101921 1.004080 0.806092 165 196 170
0.102018 1.015770 0.797302 165 196 170
0.108142 1.013830 0.773692 165 196 170
0.122692 1.017830 0.798127 165 196 170
0.122507 1.006540 0.828935 165 196 170
0.114599 0.985223 0.883518 165 196 170
0.136842 1.012440 0.898152 165 196 170
0.145166 0.990989 0.843492 165 196 170
0.125579 0.996433 0.772613 165 196 170
-0.860870 1.003260 -0.016524 165 196 170
-0.856645 1.002350 -0.022289 165 196 170
-0.857812 1.009300 -0.022400 165 196 170
-0.746789 0.991230 -0.024382 165 196 170
-0.808355 1.013160 -0.033505 165 196 170
-0.685975 1.009020 -0.015274 165 196 170
-0.685862 0.991466 -0.020627 165 196 170
-0.694651 0.987372 -0.030650 165 196 170
-0.818447 0.984103 -0.049347 165 196 170
-0.913346 0.996808 0.009014 165 196 170
-0.625503 1.006620 0.007574 165 196 170
-0.616236 1.006470 0.012060 165 196 170
-0.961887 1.007620 0.023714 165 196 170
-0.763925 0.995018 -0.042204 165 196 170
-0.771098 1.004030 -0.048327 165 196 170
-0.723674 1.015580 -0.051714 165 196 170
-0.796695 1.004670 -0.057267 165 196 170
-0.852048 1.001460 -0.048864 165 196 170
-0.675317 1.005880 -0.039570 165 196 170
-0.655976 0.993360 -0.013562 165 196 170
-0.657149 1.004350 -0.026963 165 196 170
-0.897441 1.005470 -0.022438 165 196 170
-0.907093 1.004110 -0.030014 165 196 170
-0.564661 0.991312 0.036940 165 196 170
-0.575831 0.981563 0.021808 165 196 170
-0.560360 0.982703 0.028434 165 196 170
-0.622301 0.981734 -0.002431 165 196 170
-0.546730 0.982135 0.034641 165 196 170
-0.532548 1.006250 0.085053 165 196 170
-0.537279 1.003390 0.057927 165 196 170
-0.521584 1.013860 0.032900 165 196 170
-0.535559 1.003930 0.020530 165 196 170
-0.459293 0.984605 0.085336 165 196 170
-0.466348 0.987370 0.082611 165 196 170
-0.492454 0.989602 0.075997 165 196 170
-0.454707 1.002990 0.077252 165 196 170
-0.421775 1.009570 0.094252 165 196 170
-0.428233 0.982126 0.079637 165 196 170
-0.388062 1.009000 0.084017 165 196 170
0.030810 1.014280 0.499463 165 196 170
0.030367 0.989313 0.502196 165 196 170
0.012784 1.012980 0.483478 165 196 170
-0.075340 1.017450 0.414777 165 196 170
-0.089828 1.003460 1.280110 165 196 170
-0.085252 0.987511 1.282270 165 196 170
-0.080927 0.989925 1.278890 165 196 170
-0.093705 1.003160 1.313250 165 196 170
-0.097214 0.981760 1.316700 165 196 170
-0.079966 1.017240 1.314270 165 196 170
-0.107176 0.992025 1.338410 165 196 170
-0.119922 1.011800 1.343850 165 196 170
-0.037252 1.007400 1.241430 165 196 170
-0.181164 1.000120 1.338210 165 196 170
-0.170388 0.967230 1.341160 165 196 170
-0.169907 0.968044 1.355630 165 196 170
-0.165958 1.015800 1.339170 165 196 170
-0.163460 0.990731 1.357880 165 196 170
-0.146392 0.970168 1.348400 165 196 170
-0.136908 0.990640 1.353170 165 196 170
-0.144029 0.997792 0.280234 165 196 170
-0.135586 1.013770 0.272973 165 196 170
-0.101723 0.997094 0.308513 165 196 170
-0.071275 1.008010 0.394446 165 196 170
-0.082246 0.999062 0.326022 165 196 170
-0.081993 0.985399 0.309007 165 196 170
-0.160738 0.987756 0.236999 165 196 170
-0.270026 0.988910 0.200953 165 196 170
-0.256347 0.994301 0.192203 165 196 170
-0.243933 1.013950 0.190609 165 196 170
-0.249489 1.009420 0.172774 165 196 170
-0.168184 0.988401 0.220206 165 196 170
-0.146145 1.012960 0.240251 165 196 170
-0.128960 0.997521 0.247467 165 196 170
-0.112221 0.998196 0.247841 165 196 170
-0.128017 1.008450 0.218331 165 196 170
-0.125025 0.991267 0.223428 165 196 170
-0.284922 1.004260 0.163541 165 196 170
-0.291067 1.008540 0.154932 165 196 170
-0.277395 0.981747 0.141745 165 196 170
-0.297156 0.983468 0.114336 165 196 170
-0.297170 0.982790 0.111359 165 196 170
-0.266395 0.997005 0.156335 165 196 170
-0.080184 1.016840 0.291976 165 196 170
-0.050761 1.002590 0.309154 165 196 170
-0.045498 0.985672 0.305263 165 196 170
-0.087619 0.997343 0.257649 165 196 170
-0.080731 0.999211 0.262580 165 196 170
-0.046982 1.000990 0.382285 165 196 170
-0.042459 1.000480 0.384994 165 196 170
-0.049975 0.987979 0.421801 165 196 170
-0.032060 1.014100 0.404797 165 196 170
-0.036426 0.981716 0.375827 165 196 170
0.015092 0.998548 0.475965 165 196 170
0.022302 0.986442 0.472557 165 196 170
0.030525 1.005480 0.467499 165 196 170
0.004408 0.988067 0.453034 165 196 170
0.032469 1.010440 0.456597 165 196 170
0.047424 1.014150 0.444910 165 196 170
0.085633 1.012900 0.683223 165 196 170
0.096911 0.984383 0.656218 165 196 170
0.119562 1.008910 0.700255 165 196 170
0.095410 0.991100 0.555583 165 196 170
0.112663 1.007060 0.568192 165 196 170
0.124152 1.003230 0.588974 165 196 170
0.082760 1.012800 0.510500 165 196 170
0.140784 1.011160 0.601870 165 196 170
0.124489 1.003680 0.541532 165 196 170
0.127840 1.005860 0.737580 165 196 170
0.134047 1.005480 0.719471 165 196 170
0.126359 1.012610 0.743861 165 196 170
0.144906 0.994683 0.708935 165 196 170
0.080526 0.990510 1.010860 165 196 170
0.076464 1.016680 1.009340 165 196 170
0.086901 0.987872 1.000370 165 196 170
0.073198 1.013440 1.030420 165 196 170
0.049492 0.989915 1.067090 165 196 170
0.034111 0.986590 1.096410 165 196 170
0.046719 0.993637 1.104960 165 196 170
0.056583 0.982488 1.079260 165 196 170
0.027203 0.988774 1.128290 165 196 170
0.022142 0.994707 1.130070 165 196 170
0.005459 0.992620 1.130210 165 196 170
0.069046 0.982497 1.062540 165 196 170
-0.005389 1.000070 1.128290 165 196 170
-0.006129 0.987997 1.130100 165 196 170
0.002831 1.006860 1.145900 165 196 170
-0.012241 1.003060 1.168640 165 196 170
0.003823 1.004150 1.159060 165 196 170
0.059091 0.999234 1.116480 165 196 170
0.022596 0.994089 1.142430 165 196 170
0.066502 0.987312 1.091100 165 196 170
0.113065 0.995880 0.966780 165 196 170
0.115479 0.983974 0.966395 165 196 170
0.134910 0.985906 0.948385 165 196 170
0.149350 0.996074 0.825907 165 196 170
0.154908 1.003720 0.776507 165 196 170
0.165857 1.007700 0.812894 165 196 170
0.166423 0.995885 0.796754 165 196 170
0.173236 1.017890 0.831072 165 196 170
0.172328 0.998488 0.865011 165 196 170
0.184501 0.984638 0.899001 165 196 170
0.183391 1.007280 0.853961 165 196 170
0.193856 0.985519 0.841748 165 196 170
0.172609 0.985574 0.801460 165 196 170
0.196914 0.992198 0.859325 165 196 170
0.158302 0.994676 0.748268 165 196 170
0.172435 1.012250 0.751423 165 196 170
-0.882321 1.006530 -0.043278 165 196 170
-0.906491 0.981441 -0.042242 165 196 170
-0.840065 1.016710 -0.068128 165 196 170
-0.848658 0.996463 -0.073325 165 196 170
-0.886435 1.017160 -0.069730 165 196 170
-0.779994 1.001690 -0.072626 165 196 170
-0.817264 1.000750 -0.073214 165 196 170
-0.800349 1.005830 -0.078921 165 196 170
-0.801027 1.009200 -0.080229 165 196 170
-0.828594 1.004040 -0.079086 165 196 170
-0.815244 0.998601 -0.087115 165 196 170
-0.703058 1.015880 -0.066118 165 196 170
-0.702057 1.002460 -0.068891 165 196 170
-0.694472 0.995699 -0.070766 165 196 170
-0.690568 1.008310 -0.077656 165 196 170
-0.796702 0.992608 -0.089276 165 196 170
-0.920421 0.983120 -0.018760 165 196 170
-0.944228 0.983079 0.000471 165 196 170
-0.941236 0.983855 -0.015582 165 196 170
-0.627942 1.014500 -0.043535 165 196 170
-0.582639 1.008560 -0.025390 165 196 170
-0.993492 0.994677 0.001310 165 196 170
-0.753724 1.011900 -0.082581 165 196 170
-0.740136 1.007690 -0.090521 165 196 170
-0.751878 1.001660 -0.096172 165 196 170
-0.723099 0.991135 -0.084340 165 196 170
-0.784984 1.003180 -0.111727 165 196 170
-0.853532 0.987933 -0.097378 165 196 170
-0.655227 1.000030 -0.094251 165 196 170
-0.653676 0.993934 -0.093922 165 196 170
-0.620325 0.983097 -0.062787 165 196 170
-0.945919 0.999885 -0.063481 165 196 170
-0.947895 1.013870 -0.061195 165 196 170
-0.926030 0.982736 -0.080256 165 196 170
-0.520384 0.985384 0.004096 165 196 170
-0.496764 0.996370 0.030714 165 196 170
-0.493470 0.985764 0.025320 165 196 170
-0.470578 0.999039 0.026210 165 196 170
-0.499696 0.992526 -0.016153 165 196 170
-0.536756 1.018790 -0.032641 165 196 170
-0.436134 1.000510 0.031954 165 196 170
-0.426103 1.011900 0.036727 165 196 170
-0.456283 1.015000 0.027107 165 196 170
-0.393991 0.996615 0.060628 165 196 170
-0.382012 1.004460 0.047081 165 196 170
-0.356942 1.015820 0.062608 165 196 170
-0.350748 1.013670 0.062545 165 196 170
-0.392331 1.008640 0.031969 165 196 170
-0.336279 1.010500 0.066926 165 196 170
0.072931 1.001810 0.486611 165 196 170
0.068718 0.983190 0.473588 165 196 170
-0.060376 0.984842 1.282000 165 196 170
-0.072507 1.011390 1.325150 165 196 170
-0.065861 1.017640 1.321410 165 196 170
-0.048579 0.994504 1.317140 165 196 170
-0.108149 0.990536 1.357350 165 196 170
-0.072354 0.983011 1.353760 165 196 170
-0.055469 1.010260 1.352720 165 196 170
-0.057116 1.003970 1.352300 165 196 170
-0.055297 0.998254 1.351050 165 196 170
-0.035546 1.001920 1.338260 165 196 170
-0.124971 1.007400 1.361060 165 196 170
-0.112459 1.014990 1.364770 165 196 170
-0.127850 1.016980 1.359890 165 196 170
-0.085434 1.012280 1.368770 165 196 170
-0.143215 1.003780 1.363680 165 196 170
-0.140478 1.014020 1.363450 165 196 170
-0.148129 1.012830 1.360850 165 196 170
-0.019504 0.989299 1.223020 165 196 170
-0.010263 0.996063 1.259340 165 196 170
-0.006128 0.991256 1.222050 165 196 170
-0.013969 0.993978 1.289160 165 196 170
0.001719 1.000100 1.280600 165 196 170
0.016608 0.998639 1.287280 165 196 170
0.032611 1.006790 1.258350 165 196 170
-0.164132 1.011610 1.367140 165 196 170
-0.143434 0.958590 1.353940 165 196 170
-0.049670 1.010650 0.305393 165 196 170
-0.057258 1.000340 0.273833 165 196 170
-0.027226 0.988573 0.373083 165 196 170
-0.043707 1.011400 0.330294 165 196 170
-0.026835 0.992598 0.299963 165 196 170
-0.142411 0.983241 0.207266 165 196 170
-0.138381 1.009450 0.194300 165 196 170
-0.184314 0.982995 0.189724 165 196 170
-0.166077 0.996429 0.184422 165 196 170
-0.208988 0.996922 0.165107 165 196 170
-0.200245 1.005290 0.182365 165 196 170
-0.233557 1.015840 0.142632 165 196 170
-0.217544 1.001370 0.143895 165 196 170
-0.179843 1.009170 0.176249 165 196 170
-0.119167 1.007580 0.185591 165 196 170
-0.086707 1.000930 0.231216 165 196 170
-0.095680 0.987193 0.214529 165 196 170
-0.078999 1.001540 0.228568 165 196 170
-0.121562 0.987965 0.184320 165 196 170
-0.149378 0.994522 0.167070 165 196 170
-0.262478 0.988307 0.107957 165 196 170
-0.265282 0.987940 0.101953 165 196 170
-0.231622 0.998005 0.121705 165 196 170
-0.303518 1.013860 0.081164 165 196 170
-0.293584 0.984183 0.062068 165 196 170
-0.322110 1.015360 0.080926 165 196 170
-0.258341 1.001390 0.065976 165 196 170
-0.286768 0.983460 0.047058 165 196 170
-0.016389 1.015630 0.326532 165 196 170
-0.014608 1.005120 0.330710 165 196 170
-0.000969 0.997769 0.286609 165 196 170
0.004358 0.988425 0.309698 165 196 170
-0.017403 0.986499 0.257556 165 196 170
-0.004320 1.017750 0.273197 165 196 170
-0.025562 0.982036 0.247295 165 196 170
-0.016914 0.981320 0.399813 165 196 170
-0.000914 1.016530 0.374731 165 196 170
-0.001065 0.997744 0.353089 165 196 170
0.010742 0.987701 0.371329 165 196 170
0.011409 0.991154 0.403978 165 196 170
0.000463 0.985238 0.346408 165 196 170
0.051804 0.983060 0.447983 165 196 170
0.034620 0.992180 0.421157 165 196 170
0.059571 0.996668 0.418091 165 196 170
0.025418 0.990226 0.409258 165 196 170
0.056584 0.992039 0.411173 165 196 170
0.094645 1.011590 0.450336 165 196 170
0.095143 0.997412 0.446012 165 196 170
0.083732 0.987130 0.421820 165 196 170
0.092745 0.993905 0.431763 165 196 170
0.139516 0.985389 0.678905 165 196 170
0.141998 1.005330 0.638654 165 196 170
0.165691 1.015890 0.719764 165 196 170
0.171032 1.004780 0.687763 165 196 170
0.135143 1.009540 0.548389 165 196 170
0.122853 0.998817 0.514754 165 196 170
0.097369 1.008180 0.506201 165 196 170
0.148893 0.998377 0.563717 165 196 170
0.147806 1.009090 0.561160 165 196 170
0.092434 0.994224 0.499736 165 196 170
0.157680 1.016250 0.591214 165 196 170
0.164790 0.994633 0.564357 165 196 170
0.102480 1.013130 0.475146 165 196 170
0.091115 0.994971 0.467553 165 196 170
0.155609 1.018060 0.641086 165 196 170
0.177076 0.999201 0.623439 165 196 170
0.184132 1.016410 0.582465 165 196 170
0.173426 0.986120 0.631425 165 196 170
0.143554 0.990154 0.509005 165 196 170
0.140339 0.985047 0.495883 165 196 170
0.177044 1.014440 0.533098 165 196 170
0.149649 1.014910 0.493507 165 196 170
0.180293 0.999646 0.687286 165 196 170
0.184722 1.012150 0.678092 165 196 170
0.102332 1.000290 1.007270 165 196 170
0.098534 1.009400 1.010470 165 196 170
0.117598 0.988323 1.015550 165 196 170
0.089362 0.998111 1.049090 165 196 170
0.098812 0.993761 1.052610 165 196 170
0.120312 1.017730 1.025400 165 196 170
0.131665 1.003830 1.001810 165 196 170
0.123320 1.017890 1.034620 165 196 170
0.126788 1.009900 0.979658 165 196 170
0.092584 1.005280 1.072620 165 196 170
0.061242 0.997315 1.128070 165 196 170
0.075348 1.011550 1.102550 165 196 170
0.079553 0.992610 1.116990 165 196 170
0.078479 1.013680 1.127750 165 196 170
0.093072 1.008880 1.084620 165 196 170
0.036176 1.011900 1.155550 165 196 170
0.038415 1.008470 1.159680 165 196 170
0.011197 1.014120 1.155680 165 196 170
0.109048 0.997541 1.064550 165 196 170
0.102533 1.006800 1.076170 165 196 170
0.064772 0.996393 1.153960 165 196 170
0.057096 1.002970 1.165480 165 196 170
0.046468 1.002480 1.179410 165 196 170
0.143792 0.998556 0.983012 165 196 170
0.140744 0.984405 0.987486 165 196 170
0.159990 1.008620 0.968955 165 196 170
0.178728 1.000490 0.954975 165 196 170
0.180856 0.998120 0.941766 165 196 170
0.186953 1.004790 0.948652 165 196 170
0.197554 0.997854 0.807775 165 196 170
0.191429 1.009340 0.749335 165 196 170
0.210691 0.991428 0.800354 165 196 170
0.209151 0.995025 0.850328 165 196 170
0.207086 1.014850 0.864933 165 196 170
0.224856 1.006000 0.884694 165 196 170
0.211810 0.987887 0.930127 165 196 170
0.224816 0.982099 0.921881 165 196 170
0.233210 0.990505 0.924077 165 196 170
0.236991 1.009650 0.847448 165 196 170
0.238224 0.998830 0.854192 165 196 170
0.248422 0.990050 0.842952 165 196 170
0.246959 1.015530 0.857175 165 196 170
0.205313 0.985111 0.748486 165 196 170
0.209507 1.018720 0.713484 165 196 170
-0.917272 0.983251 -0.092536 165 196 170
-0.960486 0.984112 -0.052896 165 196 170
-0.827362 0.989226 -0.113562 165 196 170
-0.852415 0.982055 -0.115933 165 196 170
-0.889975 0.983198 -0.106426 165 196 170
-0.797403 0.990103 -0.124542 165 196 170
-0.758455 1.000540 -0.126440 165 196 170
-0.780116 1.012950 -0.130627 165 196 170
-0.800422 0.985896 -0.140650 165 196 170
-0.707820 1.010770 -0.111062 165 196 170
-0.688475 1.015160 -0.109292 165 196 170
-0.676569 0.992146 -0.116792 165 196 170
-0.663014 0.997168 -0.109772 165 196 170
-0.991383 1.001100 -0.034396 165 196 170
-0.602555 1.018860 -0.077749 165 196 170
-0.737363 0.994256 -0.115475 165 196 170
-0.741215 0.984734 -0.115926 165 196 170
-0.760256 1.007130 -0.134626 165 196 170
-0.771431 0.995362 -0.143719 165 196 170
-0.800975 0.993488 -0.164162 165 196 170
-0.631304 1.006200 -0.105062 165 196 170
-0.648944 1.005360 -0.132277 165 196 170
-0.622259 0.990325 -0.128525 165 196 170
-0.594248 1.010800 -0.111891 165 196 170
-0.971789 1.015420 -0.099449 165 196 170
-0.953297 1.013290 -0.111230 165 196 170
-0.980711 1.014440 -0.105044 165 196 170
-0.512788 0.991126 -0.041650 165 196 170
-0.461202 0.992821 -0.019508 165 196 170
-0.437889 0.988155 -0.002684 165 196 170
-0.455810 0.984282 -0.039298 165 196 170
-0.532113 0.993133 -0.054809 165 196 170
-0.519547 1.010430 -0.059461 165 196 170
-0.532930 1.009530 -0.065856 165 196 170
-0.487820 1.017110 -0.069138 165 196 170
-0.419206 1.005870 0.004011 165 196 170
-0.406342 1.005000 0.014317 165 196 170
-0.417803 0.993241 0.001937 165 196 170
-0.413404 0.991221 -0.000358 165 196 170
-0.390420 0.981297 0.027385 165 196 170
-0.352047 0.986923 0.025244 165 196 170
-0.345844 0.999897 0.031642 165 196 170
-0.330779 1.000490 0.046028 165 196 170
-0.329594 1.010300 0.036353 165 196 170
-0.373799 1.002270 -0.008260 165 196 170
-0.326757 0.991253 0.043855 165 196 170
-0.313032 1.013750 0.031036 165 196 170
-0.373801 0.996158 -0.017933 165 196 170
-0.068175 1.010340 1.365860 165 196 170
-0.022949 1.015510 1.343450 165 196 170
-0.030459 1.012810 1.358570 165 196 170
-0.050449 1.010390 1.373940 165 196 170
0.000482 1.012880 1.319600 165 196 170
0.006859 1.010310 1.320150 165 196 170
0.042990 1.005250 1.210190 165 196 170
0.041770 1.011610 1.291410 165 196 170
0.018991 1.015270 1.316470 165 196 170
0.025349 0.989835 1.318300 165 196 170
0.049812 0.994324 1.301450 165 196 170
0.044956 0.990534 1.322320 165 196 170
0.039545 1.011200 1.336460 165 196 170
0.061522 1.017760 1.214270 165 196 170
-0.018467 1.002420 0.251834 165 196 170
0.020123 1.005960 0.267594 165 196 170
-0.108246 1.003970 0.153973 165 196 170
-0.092719 1.001860 0.158861 165 196 170
-0.186569 0.997873 0.159493 165 196 170
-0.161595 1.011620 0.137696 165 196 170
-0.208927 1.004440 0.127449 165 196 170
-0.204770 1.015370 0.110793 165 196 170
-0.218537 0.986478 0.105632 165 196 170
-0.188321 0.989984 0.103626 165 196 170
-0.172511 0.992156 0.113918 165 196 170
-0.158616 1.008070 0.125419 165 196 170
-0.092881 1.014500 0.150589 165 196 170
-0.073476 0.982849 0.171891 165 196 170
-0.135276 1.000400 0.132175 165 196 170
-0.126115 0.996801 0.128001 165 196 170
-0.058564 1.015640 0.194240 165 196 170
-0.042642 1.008980 0.189039 165 196 170
-0.125632 0.982574 0.125674 165 196 170
-0.138226 1.010190 0.120221 165 196 170
-0.251589 1.015930 0.058348 165 196 170
-0.285116 1.002540 0.030754 165 196 170
-0.265707 1.018310 0.041276 165 196 170
-0.241300 1.001080 0.032578 165 196 170
-0.225676 1.016590 0.047454 165 196 170
-0.209372 1.014520 0.060270 165 196 170
-0.216854 1.003160 0.031989 165 196 170
-0.281101 0.986952 0.008297 165 196 170
-0.299663 0.999362 0.008507 165 196 170
0.027504 1.009570 0.336479 165 196 170
0.029422 0.986559 0.319106 165 196 170
0.033469 0.997039 0.341280 165 196 170
0.041681 1.015180 0.311948 165 196 170
0.029762 0.999548 0.282976 165 196 170
0.033347 0.984640 0.270908 165 196 170
0.016078 0.993617 0.236776 165 196 170
0.047890 1.012090 0.272238 165 196 170
0.028173 0.987612 0.227919 165 196 170
0.041660 0.982746 0.234809 165 196 170
0.041392 1.008240 0.381831 165 196 170
0.057554 1.016980 0.372308 165 196 170
0.060836 1.002780 0.361300 165 196 170
0.072596 0.997971 0.356882 165 196 170
0.079984 1.014660 0.363229 165 196 170
0.119304 0.991491 0.443783 165 196 170
0.123288 0.982279 0.434758 165 196 170
0.137954 1.012610 0.437756 165 196 170
0.148013 1.003850 0.436131 165 196 170
0.192827 0.997785 0.651685 165 196 170
0.202679 1.003470 0.677090 165 196 170
0.222497 0.998609 0.709461 165 196 170
0.231183 0.999027 0.679317 165 196 170
0.173504 1.014140 0.514808 165 196 170
0.181005 1.008310 0.523886 165 196 170
0.136669 0.993193 0.483631 165 196 170
0.195737 1.008200 0.558102 165 196 170
0.204482 0.991585 0.528651 165 196 170
0.212728 1.016350 0.632707 165 196 170
0.215811 1.000000 0.600888 165 196 170
0.211013 1.017650 0.538130 165 196 170
0.190861 1.007540 0.505938 165 196 170
0.180161 1.012940 0.479257 165 196 170
0.206937 0.994139 0.500985 165 196 170
0.218516 0.993442 0.511206 165 196 170
0.235093 1.006970 0.704321 165 196 170
0.235833 1.002510 0.668697 165 196 170
0.230267 0.983574 0.656644 165 196 170
0.131796 1.010710 1.025480 165 196 170
0.148728 1.007020 1.029680 165 196 170
0.155935 0.999086 1.021700 165 196 170
0.111305 1.013720 1.072100 165 196 170
0.172525 1.009570 0.986128 165 196 170
0.172952 1.018660 1.015120 165 196 170
0.128056 1.003200 1.101880 165 196 170
0.075571 0.993600 1.165340 165 196 170
0.103861 0.996056 1.142820 165 196 170
0.108500 0.986155 1.115320 165 196 170
0.118772 1.015970 1.121590 165 196 170
0.101457 0.990988 1.154650 165 196 170
0.123641 1.010000 1.123260 165 196 170
0.081681 1.014560 1.170250 165 196 170
0.073311 1.008120 1.181710 165 196 170
0.075447 0.995873 1.176960 165 196 170
0.090014 0.997592 1.182880 165 196 170
0.199199 1.010280 0.980131 165 196 170
0.190862 1.005660 1.009330 165 196 170
0.217406 0.993789 0.955930 165 196 170
0.200764 0.997658 1.005110 165 196 170
0.208441 0.988993 1.000790 165 196 170
0.238634 1.004380 0.936926 165 196 170
0.243103 1.000630 0.951956 165 196 170
0.232670 1.018530 0.979603 165 196 170
0.245235 0.988548 0.803901 165 196 170
0.245219 1.010150 0.781513 165 196 170
0.253420 0.992539 0.793347 165 196 170
0.233812 0.990865 0.749831 165 196 170
0.257557 1.007990 0.810048 165 196 170
0.259332 0.990733 0.828854 165 196 170
0.264349 0.993897 0.863166 165 196 170
0.267157 0.998162 0.896698 165 196 170
0.257094 1.001190 0.922790 165 196 170
0.242941 0.997395 0.961077 165 196 170
0.276646 0.981393 0.951354 165 196 170
0.265589 0.994233 0.969045 165 196 170
0.292950 1.000310 0.918169 165 196 170
0.282239 1.016910 0.952211 165 196 170
0.274702 1.015380 0.829213 165 196 170
0.293434 0.992287 0.881686 165 196 170
0.263217 0.990323 0.765694 165 196 170
0.255617 0.998226 0.697366 165 196 170
-0.822505 0.990888 -0.155889 165 196 170
-0.809838 0.982797 -0.164324 165 196 170
-0.857902 1.009520 -0.158996 165 196 170
-0.873732 0.988094 -0.166621 165 196 170
-0.895899 1.015130 -0.160360 165 196 170
-0.732067 1.016120 -0.172256 165 196 170
-0.750835 1.009410 -0.181521 165 196 170
-0.778376 0.990141 -0.183425 165 196 170
-0.668869 0.991116 -0.152122 165 196 170
-0.663454 0.989223 -0.157121 165 196 170
-0.630089 0.981736 -0.155609 165 196 170
-0.614357 1.006800 -0.143537 165 196 170
-0.577442 0.990550 -0.116072 165 196 170
-0.572753 1.013480 -0.133187 165 196 170
-0.594983 1.005950 -0.142078 165 196 170
-0.787987 0.987783 -0.210162 165 196 170
-0.605665 0.994460 -0.153297 165 196 170
-0.580533 0.990706 -0.152307 165 196 170
-0.563312 0.983679 -0.121373 165 196 170
-0.547332 0.998563 -0.118546 165 196 170
-0.543768 0.992102 -0.137397 165 196 170
-0.984790 1.008280 -0.118052 165 196 170
-0.982695 0.993574 -0.120018 165 196 170
-0.954447 1.007670 -0.141539 165 196 170
-0.961366 1.012480 -0.155696 165 196 170
-0.498370 1.004710 -0.083454 165 196 170
-0.473956 0.992890 -0.080170 165 196 170
-0.418835 0.993958 -0.045591 165 196 170
-0.384366 0.982118 -0.022621 165 196 170
-0.442716 1.014720 -0.074245 165 196 170
-0.466816 1.017970 -0.074955 165 196 170
-0.415185 0.991327 -0.072612 165 196 170
