ply
format ascii 1.0
comment VCGLIB generated
element vertex 832
property float x
property float y
property float z
property float nx
property float ny
property float nz
element face 0
property list uchar int vertex_indices
end_header
-0.83176 1.00762 -0.952081 0.207361 -0.978091 0.0184015 
-0.832313 0.895094 -1.00534 -0.393531 -0.271566 0.878286 
-0.848528 0.884101 -1.00489 -0.0231904 -0.10047 0.99467 
-0.829604 0.859475 -1.00259 -0.206218 -0.420827 0.88339 
-0.904251 1.01614 -0.892195 -0.410155 -0.860998 0.300758 
-0.907293 1.01698 -0.877048 -0.620171 -0.758687 -0.199453 
0.995821 0.797994 -0.979618 -0.876327 0.369271 0.309337 
1.00965 0.830482 -0.956047 -0.893987 -0.147518 0.423113 
0.919869 0.954742 -1.00516 0.257045 0.351452 0.900227 
0.892319 0.970011 -0.988407 -0.128499 -0.490418 0.861962 
0.990512 0.920209 -0.907491 -0.988802 -0.0879161 -0.120586 
0.796285 -0.807964 -0.986672 0.0796614 0.177176 0.98095 
0.798317 -0.847365 -0.989694 0.16281 -0.13293 0.977662 
0.92134 -0.848767 -1.01198 -0.126307 0.317709 0.939738 
0.961299 -0.834889 -1.0156 -0.100489 -0.136057 0.985591 
1.00043 -0.861861 -0.982154 -0.481086 0.0600235 0.874616 
0.819836 -0.916027 -0.995453 0.501579 -0.0444373 0.86397 
0.779832 -0.910789 -0.994532 -0.294382 -0.128275 0.94704 
0.772074 -1.00668 -0.998361 0.118396 0.495595 0.860446 
0.821812 -0.993092 -0.975501 0.331294 0.934884 -0.127423 
0.836529 -1.00343 -0.983391 0.0530599 0.850148 0.523864 
0.89055 -0.905464 -0.982551 0.534019 0.236905 0.811603 
0.904602 -0.919416 -1.01367 0.171334 -0.196255 0.965468 
0.849625 -0.921468 -1.01861 -0.37384 0.303211 0.876531 
0.903253 -0.99198 -0.893223 0.00042642 0.996573 0.082717 
0.89123 -0.987597 -0.883709 0.135354 0.942728 -0.304867 
-1.00949 -0.815464 -0.98667 0.688593 0.38379 -0.61526 
-0.981808 -0.828673 -0.987193 0.0806838 0.861467 -0.501363 
-0.891024 -0.934566 -0.984877 -0.158583 0.12512 0.979386 
-0.886099 -0.986434 -1.01368 0.0261952 0.395513 0.918087 
-0.857072 -1.00344 -1.00251 0.113979 0.376334 0.919446 
-1.00428 -0.903338 -0.888729 0.735182 0.0706278 -0.674181 
-0.85881 1.01044 0.889296 -0.443207 -0.884177 0.147645 
-0.857152 0.986873 0.880291 -0.0278109 -0.999327 0.0239161 
0.981588 0.979859 0.763738 -0.679004 -0.648705 0.343707 
0.988632 0.972148 0.81798 -0.940129 -0.31465 0.130971 
0.913567 1.00777 0.929751 0.368577 -0.908528 -0.196792 
0.88844 0.984171 0.968925 0.5955 -0.739989 0.312723 
0.8614 1.01089 1.01721 -0.136924 -0.863276 0.485805 
0.99188 0.892559 0.814821 -0.965985 -0.243329 0.0875384 
0.994187 0.868101 0.779071 -0.976758 0.138893 -0.163258 
0.777916 1.00334 -0.795617 0.141606 -0.968653 -0.204104 
0.803883 0.995916 -0.848982 0.0471823 -0.998878 -0.00399532 
0.923562 0.991916 -0.846084 -0.361617 -0.908796 0.20814 
0.972771 0.992137 -0.826095 -0.313625 -0.947193 -0.066815 
0.806404 1.00944 -0.914452 -0.383246 -0.893228 -0.235089 
-0.986225 1.00497 -0.795253 0.196294 -0.940723 -0.276602 
-0.991267 0.975455 -0.763513 0.764604 -0.56441 -0.311163 
-1.01775 0.970699 -0.799375 0.949023 0.289528 0.124616 
-0.888307 0.990255 -0.953524 -0.69308 -0.595446 -0.406307 
-0.894685 0.985739 -0.998536 0.0411251 0.248303 0.967809 
-0.910794 1.00138 -0.930876 -0.122855 -0.969885 0.21031 
-0.981657 0.913961 -0.808519 0.950565 -0.143312 0.275478 
0.989308 -1.0005 -0.772934 0.056465 0.754071 -0.654361 
0.993381 -0.957775 -0.782362 -0.435044 0.633196 0.640156 
1.017 -0.980346 -0.823806 -0.297178 0.56648 -0.768626 
0.892278 -0.999578 -0.977119 -0.214287 -0.0241261 0.976473 
0.905711 -1.01464 -0.931368 -0.382227 0.917921 -0.106408 
1.00745 -0.920863 -0.82863 -0.974256 -0.22454 -0.0201691 
0.791502 -0.987025 0.827982 0.159206 0.908855 0.385534 
0.831254 -0.982021 0.844804 0.345301 0.932674 0.104341 
0.929089 -0.992713 0.837142 0.181828 0.82355 0.537312 
0.975511 -0.992359 0.838812 -0.06471 0.989635 0.128203 
1.0067 -0.98985 0.82929 -0.367086 0.928937 -0.0482 
0.819783 -1.01333 0.910469 -0.0961542 0.920766 -0.378079 
0.766863 -1.00961 0.901056 -0.473186 0.77614 -0.416775 
0.788752 -0.996329 1.01037 0.511601 0.606582 -0.608541 
0.868869 -0.991688 0.917109 0.448795 0.815831 0.364696 
0.893108 -1.01049 0.903794 0.335947 0.836559 0.432792 
0.835869 -1.00221 0.914533 -0.263262 0.895248 -0.359478 
-0.998458 -0.98433 0.799653 0.918812 -0.29915 0.257475 
-1.00177 -0.961062 0.796325 0.992804 -0.119646 -0.00497507 
-0.890269 -1.01662 0.933745 0.181545 0.924407 0.335429 
-0.888177 -1.01838 0.960943 -0.211326 0.922776 -0.32222 
-0.834918 -1.00277 0.98971 -0.0769788 0.463582 -0.882704 
-0.984192 -0.892166 0.812321 0.94994 0.0206625 -0.31175 
-0.982486 -0.868186 0.772852 0.765577 -0.600039 0.232044 
0.996301 0.774245 0.766963 -0.964426 -0.12264 -0.234185 
0.994776 0.772719 0.804524 -0.939645 -0.338293 0.051227 
1.00148 0.82206 0.831188 -0.925204 -0.307954 -0.221724 
0.996186 0.982201 0.886535 0.424695 -0.800853 -0.42222 
0.98707 1.00045 0.913408 -0.683612 -0.655121 0.321702 
1.00062 0.926426 0.839047 -0.977448 -0.210803 -0.0125589 
0.996105 0.812975 0.918929 -0.91323 -0.24544 -0.325222 
1.00843 0.776847 0.896959 -0.871895 0.178685 0.455928 
0.986263 0.776299 0.998116 -0.370636 -0.832411 0.411972 
0.985489 0.86173 0.894529 -0.952791 -0.0820221 0.292338 
0.998619 0.843858 0.892825 -0.928815 -0.370504 -0.00537236 
-1.00338 -0.795259 0.787103 0.890399 0.0944623 0.445271 
-0.987253 -0.796571 0.799267 0.856914 0.0592583 0.512041 
-1.0077 -0.829128 0.833907 0.963736 -0.265738 -0.0244063 
-0.998123 -0.957969 0.89114 0.865491 -0.41629 0.278617 
-1.00378 -1.00197 0.922501 0.794426 0.322808 -0.514473 
-1.01736 -0.947832 0.826954 0.931028 -0.298314 0.210226 
-1.01479 -0.803892 0.918975 0.91481 -0.180434 0.361339 
-1.01183 -0.767542 0.921061 0.960915 -0.219275 0.169001 
-1.00276 -0.797805 1.00482 0.724186 0.189414 -0.663081 
-1.00137 -0.893225 0.912906 0.999545 -0.0127406 0.0273583 
-0.991342 -0.862243 0.915906 0.925235 0.243103 0.291273 
0.188702 0.993737 -0.967707 0.444907 -0.895315 -0.0216396 
0.162704 1.01866 -0.9692 -0.509335 -0.725038 0.463571 
0.172969 0.898241 -1.01611 0.964703 -0.209667 0.159333 
0.171719 0.869738 -1.01844 -0.0697266 0.241734 0.967834 
0.108688 1.00721 -0.902998 -0.199084 -0.942137 0.269711 
0.819454 -0.025218 -0.997663 0.166844 0.0601565 0.984146 
0.860913 -0.04171 -1.00575 -0.443531 0.372923 0.81499 
0.857991 0.112556 -0.990837 -0.14249 -0.296444 0.944361 
0.79936 0.205587 -0.981804 0.399242 0.0366915 0.916111 
0.890141 -0.086559 -1.01536 0.161127 0.186507 0.969151 
0.919134 -0.141088 -1.00345 -0.0382086 -0.0542861 0.997794 
-0.81576 1.00186 0.037034 -0.298158 -0.947528 0.115292 
-0.846698 1.00136 0.029306 0.0154466 -0.995476 0.0937498 
-0.828594 1.00404 -0.079086 0.108146 -0.768816 0.630259 
-0.778376 0.990141 -0.183425 0.50805 -0.788216 0.347275 
-0.91287 1.00055 0.112199 0.2614 -0.880599 -0.39524 
-0.897097 1.00109 0.136294 -0.0594669 -0.956322 -0.286202 
0.991709 -0.202981 -1.00403 -0.894202 0.229994 0.384064 
0.99671 -0.180381 -0.974869 -0.382134 -0.368514 0.84745 
0.981897 -0.159986 -0.968177 -0.997783 -0.0620589 -0.0240529 
0.898077 -0.03083 -1.01374 0.047288 0.294983 0.954332 
0.8919 0.009214 -1.01171 0.345059 -0.872 0.347205 
0.897346 -0.073594 -1.01185 0.0592287 -0.286736 0.956177 
0.997249 -0.080021 -0.907459 -0.686546 -0.578676 0.440214 
0.771321 0.22679 -0.986801 -0.302517 -0.601294 0.739547 
0.750187 0.221213 -1.01362 -0.457062 0.107162 0.882955 
0.924363 0.152869 -0.990911 0.402072 -0.292293 0.8677 
0.985594 0.16385 -0.983375 -0.759827 -0.616382 0.206728 
0.994482 0.148297 -0.990491 -0.881159 -0.466202 -0.0788285 
0.850094 0.018993 -0.985509 -0.111562 -0.0814438 0.990414 
0.846564 0.044817 -0.994745 -0.225972 0.262677 0.93805 
0.881875 0.014234 -0.993192 0.380443 -0.900233 0.211765 
0.997314 0.802691 0.019549 -0.99598 0.0354317 -0.0822742 
0.982117 0.841771 0.047498 -0.945597 0.0256193 -0.324329 
0.986108 0.840225 -0.076548 -0.694229 -0.218651 0.685739 
1.00589 0.785519 -0.177527 -0.862054 -0.38963 0.324116 
0.986955 0.895832 0.093035 -0.882486 -0.447387 0.145131 
-0.228131 0.20633 -1.01768 -0.333367 -0.0750612 0.939804 
-0.196672 0.162484 -0.999258 0.15017 -0.539139 0.828721 
-0.072889 0.148209 -1.0145 -0.0844695 -0.112837 0.990017 
-0.03361 0.236973 -0.999529 -0.508111 0.482257 0.713619 
-0.17457 0.088002 -1.01564 -0.00206406 -0.141286 0.989967 
-0.004099 0.221499 -1.00905 -0.0999387 -0.533953 0.839587 
-0.034153 0.231166 -1.00599 -0.605073 -0.219881 0.765205 
0.104048 0.066117 -0.98666 0.456471 -0.35098 0.817586 
0.112459 0.037358 -1.00862 0.0688293 -0.223072 0.972369 
-0.126714 0.15633 -1.0125 -0.0603546 -0.234599 0.970217 
-0.095664 0.142683 -0.986971 0.253794 0.219453 0.942035 
-0.08368 0.116868 -1.01063 0.349108 0.315978 0.882202 
-0.095714 0.100732 -0.994698 -0.019222 0.330789 0.943509 
-0.201907 -0.812562 -0.98202 -0.0330132 0.102702 0.994164 
-0.205941 -0.848237 -0.992481 -0.243013 -0.118836 0.962716 
-0.066072 -0.825516 -0.995104 -0.294882 0.223712 0.928977 
-0.025731 -0.764588 -0.985704 -0.0879761 0.0694263 0.9937 
-0.186458 -0.890747 -1.01379 0.220497 -0.31833 0.92198 
-0.209137 -0.914408 -1.01007 0.411522 0.0715794 0.908584 
-0.231575 -1.00396 -1.0144 -0.548322 0.63341 0.546018 
-0.178605 -0.988377 -0.97001 0.243304 0.947338 0.208217 
-0.159049 -0.997893 -0.980034 0.0602348 0.9449 -0.32177 
-0.125546 -0.906471 -0.98816 -0.599365 0.0837747 -0.79608 
-0.092778 -0.896504 -1.00704 -0.148939 -0.449519 -0.880767 
-0.163325 -0.904374 -0.983156 0.385417 0.353575 -0.852314 
-0.093635 -0.985502 -0.917018 0.00870596 0.88113 0.472793 
-0.003166 -0.766628 -0.989407 -0.838119 -0.517122 0.173612 
-0.047027 -0.767821 -0.990331 -0.116936 0.337118 0.934172 
0.075789 -0.921931 -0.999263 0.270866 -0.123655 0.954642 
0.118804 -0.983251 -1.01275 -0.343004 -0.645254 0.682639 
0.142768 -0.99979 -1.01839 -0.312641 0.407109 0.858206 
-0.118307 -0.835863 -1.00799 0.119156 -0.330995 0.936079 
-0.083207 -0.84886 -0.992592 -0.148663 -0.198217 0.968819 
-0.107011 -0.862996 -1.01418 -0.221535 -0.239959 0.945168 
0.815562 -0.995101 0.015665 -0.290261 0.916297 -0.275949 
0.855908 -1.01722 0.025849 -0.286505 0.956255 0.0590861 
0.832834 -0.996804 -0.104751 0.0725692 0.950458 -0.302263 
0.798005 -0.985375 -0.198893 0.0406454 0.944372 0.326357 
0.909019 -0.987562 0.093887 -0.269672 0.2576 -0.927857 
0.921025 -0.989274 0.127943 0.162649 0.912793 0.374638 
-1.00529 0.179389 -0.95318 0.97165 -0.0659537 0.227039 
-0.993486 0.152964 -0.957839 0.911183 0.41197 -0.0050615 
-0.910395 0.056285 -0.983293 0.0352249 -0.0978477 0.994578 
-0.822831 0.02218 -1.00366 -0.148259 0.30709 0.940061 
-1.01706 0.111459 -0.891388 0.641902 0.388285 0.661208 
-0.770247 -0.004457 -1.00514 -0.155634 -0.232985 0.959946 
-0.768319 0.034187 -1.01795 0.814996 0.175483 0.552257 
-0.835058 -0.076191 -1.01 -0.0536611 0.0827913 0.995121 
-0.828301 -0.117005 -1.00006 -0.0504955 0.188051 0.98086 
-0.985861 0.132613 -1.00894 0.573241 0.816076 -0.0735872 
-0.947935 0.083745 -0.998464 -0.204137 -0.33412 0.920158 
-0.985637 0.089328 -0.987442 0.20998 0.686858 0.695798 
-0.998237 0.096063 -0.999775 0.57762 0.396933 0.713302 
-0.987497 -0.812354 0.037344 0.981248 -0.101006 0.164162 
-0.988664 -0.838669 0.035877 0.871214 -0.481081 0.0977083 
-0.982823 -0.852749 -0.099352 0.973841 -0.184124 -0.133159 
-0.989128 -0.775505 -0.200254 0.859209 0.361341 -0.362205 
-0.982749 -0.917525 0.085173 0.986375 -0.153703 0.0586492 
0.140084 1.01333 0.918328 -0.295382 -0.911232 -0.287065 
0.173285 0.983703 0.888714 -0.6398 -0.648743 -0.412055 
0.81259 1.00475 -0.039019 -0.431597 -0.836364 -0.337964 
0.831973 0.99113 -0.016345 0.629515 -0.730437 -0.264902 
0.844292 0.994535 0.095861 -0.0146476 -0.874752 -0.484349 
0.793274 1.01256 0.194896 0.277992 -0.954966 -0.103727 
0.923343 0.998167 -0.104192 -0.175489 -0.858287 0.482231 
0.901589 0.988332 -0.129419 -0.362257 -0.775934 0.516427 
0.982324 1.00073 -0.202608 -0.579238 0.814113 -0.0412662 
0.983757 0.953778 -0.220945 -0.933652 -0.308151 -0.182586 
0.986738 0.958931 -0.180113 -0.453378 0.131043 0.881633 
0.907989 1.00471 -0.044418 -0.0242026 -0.948741 -0.315127 
0.918668 1.01474 -0.006754 -0.0165487 -0.355137 -0.934668 
0.924503 0.98994 -0.044588 0.0680492 -0.94496 -0.320031 
0.987572 0.89295 -0.185673 -0.791955 -0.132459 0.596038 
1.01004 0.860415 -0.207747 -0.971221 -0.0402059 -0.234762 
0.797425 1.00022 0.230452 0.288186 -0.955661 -0.0604995 
0.741847 1.00815 0.211906 -0.135928 -0.946247 -0.293496 
0.953888 1.01738 0.149922 -0.58552 -0.760838 0.279807 
0.95593 0.998276 0.171577 0.49464 -0.868705 -0.0261235 
0.826701 0.986269 0.042779 -0.0041386 -0.981303 0.192424 
0.827345 1.01077 0.070755 0.240329 -0.945732 -0.218708 
0.869709 0.998208 0.035317 0.112276 -0.990746 -0.0762652 
1.01497 0.766311 -0.209446 -0.827996 0.379048 -0.413213 
0.983399 0.76087 -0.202623 -0.124182 -0.0915828 -0.988024 
0.983153 0.950163 -0.115691 -0.953188 -0.137885 0.269111 
0.997142 0.923044 -0.170138 -0.66302 -0.604478 0.4416 
0.999766 0.848563 -0.021686 -0.95757 0.287046 -0.0257849 
1.00927 0.836463 -0.060075 -0.287563 -0.517776 0.805739 
1.01135 0.858874 -0.020064 -0.885096 -0.344914 -0.312474 
0.983125 0.900832 0.006056 -0.995927 0.0643738 0.0631338 
-0.22629 1.00534 0.190878 -0.0360603 -0.937526 -0.34604 
-0.20371 0.997419 0.140887 0.12234 -0.946856 -0.297483 
-0.047312 1.00051 0.167771 0.261621 -0.897955 0.353881 
-0.037678 1.00874 0.221565 0.421058 -0.856426 -0.298738 
-0.188321 0.989984 0.103626 0.0591996 -0.99818 -0.0114672 
0.007403 0.986237 0.208308 -0.475673 -0.871439 -0.119701 
-0.018467 1.00242 0.251834 -0.0757389 -0.993523 0.0847074 
0.112194 0.994695 0.04597 0.0569717 -0.875325 0.480167 
0.119095 0.993385 0.028359 -0.207473 -0.971523 -0.114449 
-0.108246 1.00397 0.153973 0.309931 -0.949529 -0.0483496 
-0.092881 1.0145 0.150589 -0.192696 -0.92676 0.322465 
-0.087791 0.983327 0.108479 -0.16521 -0.633395 -0.755987 
-0.09745 1.01597 0.092012 0.251506 -0.86938 -0.425351 
0.0477 1.00743 -0.23738 -0.354174 -0.871979 -0.337955 
0.018461 0.994628 -0.185554 -0.163087 -0.835819 0.524223 
-0.081484 0.993443 -0.05499 -0.0266449 -0.99964 0.00311961 
-0.108889 1.01049 -0.034819 -0.248845 -0.925984 -0.283953 
0.079638 0.989255 -0.187208 0.411364 -0.632719 0.656084 
-0.99966 1.00739 0.222034 0.592122 0.645884 -0.481897 
-0.981489 0.978376 0.215625 0.923186 -0.263858 -0.279475 
-1.00298 0.963529 0.184241 0.978219 -0.18237 0.0991438 
-0.889443 1.01352 0.026995 -0.066692 -0.986938 0.146645 
-0.920421 0.98312 -0.01876 0.257784 -0.955219 0.145275 
-0.888119 1.01763 0.064236 -0.0990585 -0.992589 0.070395 
-0.988367 0.912852 0.193733 0.992502 -0.0982487 -0.0727081 
-0.770974 0.987548 -0.220228 -0.266884 -0.837437 -0.476941 
-0.742111 0.995569 -0.227384 0.502561 -0.783814 0.364786 
-0.92294 1.00655 -0.15621 -0.0218966 -0.99789 0.0611182 
-0.961366 1.01248 -0.155696 0.219496 -0.975601 -0.00489038 
-0.982703 0.994407 -0.142399 0.564447 -0.712942 0.41607 
-0.857812 1.0093 -0.0224 0.217809 -0.975766 -0.0209605 
-0.840065 1.01671 -0.068128 0.247404 -0.856309 0.453349 
-0.872989 1.01485 -0.018145 0.258419 -0.786381 -0.561092 
-1.01451 -0.040145 0.21595 0.142423 0.824256 0.548012 
-1.01104 -0.038934 0.188702 0.960577 -0.0101252 -0.277829 
-1.00353 0.085386 0.079937 0.660137 0.0756507 0.747326 
-1.01311 0.203986 0.041708 0.95898 0.232219 -0.16258 
-1.00397 -0.094663 0.201708 0.761181 0.297045 -0.576514 
1.01526 -1.01311 0.231847 -0.76295 0.605709 -0.225885 
1.00508 -0.965147 0.216582 -0.894268 -0.440431 0.0794028 
0.985245 -0.957744 0.179178 -0.885858 0.443017 -0.137813 
0.923819 -0.992745 0.048511 0.0549968 0.994543 -0.0886571 
0.92251 -0.985298 -0.006777 -0.328232 0.93529 0.132275 
0.916488 -0.992787 0.047601 -0.0688116 0.981139 -0.180641 
1.01403 -0.908046 0.200615 -0.578653 -0.540876 -0.610421 
0.778262 -1.00313 -0.207282 -0.0172621 0.79424 -0.607359 
0.747844 -0.986718 -0.200859 0.187112 0.965357 -0.181862 
0.921564 -1.00739 -0.150035 -0.0660235 0.974101 -0.216257 
0.950009 -0.995835 -0.14619 -0.232719 0.936374 -0.262764 
0.993467 -1.01196 -0.151442 -0.348873 0.933671 0.0809057 
0.857965 -1.018 -0.031776 0.210995 0.956979 0.199177 
0.829884 -1.00544 -0.047769 0.280288 0.950058 0.137216 
0.859796 -1.00824 -0.04618 0.453506 0.859794 0.234706 
1.00492 0.019964 0.205419 -0.936572 -0.118568 -0.329811 
1.00104 0.037215 0.174935 -0.930523 0.353748 -0.094816 
0.991844 -0.095066 0.06001 -0.690178 -0.716799 -0.0992645 
0.987506 -0.206332 0.012612 -0.944072 -0.327457 -0.038724 
0.986722 0.103756 0.1966 -0.957901 0.25412 0.133597 
-0.200994 -1.0037 -0.188488 0.176651 0.683878 0.707888 
-0.188272 -1.00625 -0.173238 0.645237 0.750786 -0.141388 
-0.048349 -0.998158 -0.16042 0.281238 0.955558 0.088401 
-0.01783 -1.00883 -0.2078 -0.212279 0.852989 -0.476809 
-0.172119 -1.01443 -0.097192 0.0465053 0.994043 -0.0985721 
-0.002149 -1.01521 -0.202715 0.150702 0.926013 -0.346105 
-0.03531 -0.993285 -0.244923 -0.194597 0.967347 -0.162393 
0.08208 -1.01325 -0.074751 -0.650876 0.754952 0.0800473 
0.12671 -1.01389 -0.025608 0.192502 0.938516 0.286585 
-0.11882 -1.01046 -0.162336 0.354061 0.90197 0.247167 
-0.100792 -0.98814 -0.161471 -0.125796 0.963214 -0.237476 
-0.108898 -0.993873 -0.128509 0.121051 0.736768 0.665222 
-0.109279 -1.01397 -0.084386 -0.326413 0.834485 -0.443948 
-0.231224 -1.01615 0.80783 0.173761 0.983754 0.0451217 
-0.191696 -1.01153 0.858533 0.14963 0.906078 0.395769 
-0.080396 -0.990848 0.837906 0.229764 0.799192 -0.555429 
-0.03322 -1.00361 0.771754 0.131768 0.435576 -0.890455 
-0.185501 -0.992623 0.921442 -0.133475 0.990874 -0.0188151 
-0.21982 -1.00327 0.905449 0.191522 0.978795 -0.0726645 
-0.215253 -0.985802 1.01842 -0.439573 0.823732 0.358108 
-0.11545 -0.992744 0.88974 -0.500938 0.773657 0.387963 
-0.104453 -0.98223 0.907279 0.572114 0.803687 -0.16362 
-0.156218 -0.986892 0.921966 0.359096 0.916126 -0.178223 
-0.013004 -1.0081 0.773385 -0.194543 0.809179 0.554421 
-0.021123 -1.00742 0.766999 0.360388 0.887226 -0.288012 
0.086509 -0.993513 0.947862 -0.123484 0.817038 -0.563205 
0.138957 -0.98404 0.972611 -0.309984 -0.833956 -0.456539 
0.174475 -1.00834 0.999702 -0.231102 0.3025 -0.924708 
-0.113653 -0.989717 0.841714 -0.0479362 0.928805 0.367454 
-0.100715 -0.997634 0.831445 0.7081 0.691073 0.144953 
-0.111759 -0.992377 0.881164 0.993924 0.0577877 -0.0936828 
-1.00912 -0.983376 -0.203711 0.851171 0.372106 -0.370196 
-1.01148 -0.95963 -0.203445 0.919128 -0.246051 -0.307673 
-0.895467 -1.0147 -0.062594 0.727134 0.683456 0.0645395 
-0.80774 -0.990625 -0.041509 -0.148856 0.984412 -0.0936709 
-0.994843 -0.917474 -0.182799 0.998762 -0.00720696 -0.0492152 
-1.0182 -0.882403 -0.229369 0.947072 -0.102635 -0.304173 
-0.794769 -0.984439 0.01338 0.184713 0.97983 0.0762556 
-0.794441 -0.990694 -0.033278 -0.251762 0.930174 -0.267194 
-0.841419 -1.0174 0.083574 -0.161935 0.946651 -0.27862 
-0.862611 -0.999382 0.121997 -0.182594 0.837961 0.514276 
-0.985195 -1.00277 -0.111067 0.347491 0.893577 -0.2842 
-0.9481 -0.987108 -0.099693 -0.419702 -0.0305773 -0.907147 
-0.984719 -0.994829 -0.084722 -0.0333352 0.925389 -0.37755 
-1.00488 -1.00727 -0.091294 0.0788853 0.996785 0.0140118 
-1.00362 -0.796027 -0.212862 0.799522 -0.33158 -0.500818 
-0.997944 -0.762527 -0.233626 0.95206 0.223899 0.208447 
-1.00618 -0.954645 -0.106131 0.921251 -0.306599 -0.239361 
-0.994878 -0.937683 -0.149247 0.716215 -0.696935 -0.0362994 
-1.01515 -0.842426 -0.019442 0.957749 -0.270858 -0.0967097 
-0.985868 -0.842298 -0.047343 0.907983 -0.137452 0.395819 
-0.998465 -0.872919 -0.017444 0.880547 0.320763 -0.348925 
-0.984056 -0.919978 0.011139 0.990237 -0.0179504 0.138231 
0.983347 -0.214161 -0.200718 -0.7411 0.381742 0.552307 
1.003 -0.177842 -0.144816 -0.189764 0.950113 -0.247537 
1.00068 -0.06047 -0.169285 -0.926692 0.19094 -0.323703 
1.01782 -0.015269 -0.216099 -0.889802 0.410763 -0.198813 
0.999813 -0.186817 -0.098488 -0.978733 -0.126796 -0.161257 
1.00283 -0.217799 -0.077253 -0.982235 0.169019 0.0815253 
1.00612 0.013686 -0.205075 -0.965712 -0.0670367 -0.25081 
0.995314 -0.018078 -0.260153 -0.942701 -0.0461149 0.330437 
1.0057 0.085517 -0.064411 -0.801449 -0.00429497 -0.598048 
0.98376 0.12226 -0.033679 -0.879272 0.446245 -0.166571 
0.998274 -0.109574 -0.152677 -0.959208 -0.00346533 -0.282681 
0.986802 -0.080238 -0.157673 -0.985368 0.117896 0.12309 
0.996793 -0.077945 -0.11204 -0.926384 -0.27904 0.252882 
1.00755 -0.077625 -0.101775 -0.8964 -0.174347 0.407518 
0.991762 -0.200967 0.007259 -0.981034 -0.176442 -0.0802525 
0.990297 -0.211078 0.039536 -0.998657 -0.00736957 -0.0512852 
1.01049 -0.110399 -0.09777 -0.992802 -0.0135075 0.119005 
1.01196 -0.14182 -0.086815 -0.995581 0.0901049 0.0264385 
1.01038 -0.04842 0.106517 -0.342193 -0.120583 0.93186 
0.983531 -0.053964 0.103699 -0.994981 0.00321129 0.10001 
1.00386 -0.025275 0.112541 -0.820868 -0.313424 -0.477432 
0.991875 0.000918 0.110843 -0.920295 0.303076 -0.24739 
0.995474 -0.13744 0.91861 -0.990731 -0.106621 -0.0841626 
1.00515 -0.208221 0.822597 -0.933073 -0.278113 -0.228095 
1.00678 -0.221385 0.794673 -0.973367 0.0708804 0.218021 
1.00506 -0.254594 0.787867 -0.805966 0.109714 0.581705 
0.995775 -0.067781 0.856911 -0.986447 0.0770823 -0.144846 
0.998556 -0.049784 0.856559 -0.968991 -0.232988 -0.0823009 
1.00132 -0.153233 0.967874 -0.929222 -0.129874 0.345948 
1.01543 -0.171696 0.921468 -0.887377 -0.317732 -0.334078 
0.986252 -0.121539 0.979109 -0.941976 -0.329455 -0.0643394 
1.0071 -0.085324 0.992625 0.309433 0.911484 -0.271013 
-0.982844 0.236063 -0.199706 0.913994 0.0189711 0.405284 
-1.01673 0.192587 -0.164536 0.99442 -0.0443068 0.0957349 
-0.996175 0.050289 -0.159958 0.979919 -0.0942715 -0.175705 
-0.993139 0.014269 -0.215249 0.815216 -0.451078 0.363252 
-0.992344 0.191883 -0.102208 0.630192 0.370073 0.682571 
-1.0111 0.232343 -0.092051 0.932338 -0.355315 -0.0670659 
-1.01474 -0.004611 -0.210155 0.872589 -0.393028 0.29003 
-0.996522 0.035846 -0.266239 0.898989 -0.031293 -0.436852 
-1.00388 -0.110688 -0.054021 0.649235 0.750255 -0.124947 
-0.993741 -0.111448 -0.049022 0.926872 0.260018 0.270739 
-1.00498 0.106335 -0.174254 0.933199 -0.161494 0.32103 
-1.01872 0.112213 -0.150067 0.365332 -0.871808 -0.326317 
-1.01849 0.096836 -0.129966 0.896888 0.103036 0.430088 
-1.01874 0.079187 -0.103948 0.807911 -0.257942 -0.529854 
-0.99802 0.201261 -0.00579 0.987304 0.14491 -0.065051 
-1.00858 0.237438 0.035888 0.908109 0.0196889 -0.41827 
-0.98242 0.141075 -0.090844 0.959738 -0.223492 -0.170159 
-1.01751 0.171324 -0.087931 0.908523 0.035111 0.416357 
-0.994026 0.028731 0.123726 0.979041 -0.01241 -0.203284 
-0.994996 0.074574 0.084451 0.977323 0.208588 -0.0364764 
-1.00745 0.034729 0.091908 0.729329 0.474661 0.492722 
-1.01581 0.015078 0.106271 0.977708 -0.205714 -0.0420555 
-0.987165 0.137406 0.912214 0.998188 0.0555907 0.0230486 
-0.993316 0.23458 0.830661 0.971078 -0.0853695 0.222979 
-0.986069 0.206238 0.774845 0.814509 0.312791 0.488607 
-1.0071 0.25083 0.772137 0.978693 -0.113821 -0.170891 
-0.982832 0.06749 0.838099 0.931816 0.0742629 -0.355252 
-1.00756 0.034073 0.846542 0.972873 0.162485 0.164672 
-1.01813 0.141377 0.980683 0.720265 0.541421 -0.433684 
-0.997746 0.170039 0.932449 0.974488 0.214525 -0.0659727 
-1.01774 0.135549 0.953009 0.436313 -0.857938 -0.271243 
-0.992698 0.085169 1.01439 0.588003 -0.0230119 -0.808531 
-0.301785 0.984524 -0.986367 0.567652 0.635651 0.523182 
-0.347292 1.01185 -0.983487 0.361887 -0.918437 -0.159725 
-0.329618 0.90618 -0.990584 0.214655 0.329171 0.919549 
-0.343825 0.880026 -0.984113 0.260329 -0.214752 0.941334 
-0.388422 1.00353 -0.912072 -0.0648897 -0.984842 -0.160861 
-0.203194 0.489805 -1.00873 0.421065 0.295096 0.857684 
-0.185706 0.484146 -0.996596 -0.0496996 0.420865 0.905761 
-0.148919 0.578884 -0.993724 0.251904 0.363362 0.896946 
-0.230332 0.695261 -1.00961 0.169748 -0.0183167 0.985317 
-0.081542 0.414151 -1.01676 0.209304 -0.0279353 0.977452 
-0.015631 0.309176 -0.984596 0.122534 -0.266173 0.956105 
-0.787513 0.986952 -0.504751 0.0441325 -0.999026 0.000566552 
-0.822146 1.01242 -0.463649 -0.592325 -0.805129 -0.0302962 
-0.839979 1.01397 -0.607916 0.0311661 -0.705062 -0.70846 
-0.762701 1.00081 -0.669678 0.271105 -0.936818 0.221076 
-0.898565 0.986412 -0.395049 0.557667 -0.809439 0.183894 
-0.892964 0.993987 -0.385533 0.758113 -0.296037 0.581056 
-0.952217 1.0054 -0.341063 0.2908 -0.956475 0.024322 
-0.913012 1.00476 -0.359598 0.60943 -0.363614 0.704543 
0.887766 0.348923 -1.01427 -0.0400389 -0.139508 0.989411 
0.989494 0.324169 -0.978679 -0.544474 0.359095 0.758023 
0.993794 0.34507 -0.986681 -0.413025 0.397949 0.819174 
0.889999 0.439595 -1.00951 -0.26428 0.414984 0.8706 
0.988328 0.401891 -0.887836 -0.753909 0.0193772 0.656693 
0.49533 0.732397 -1.01069 0.00941523 -0.117496 0.993029 
0.484942 0.712234 -1.00298 0.143791 0.0442053 0.98862 
0.578299 0.554065 -1.00019 -0.472822 0.167006 0.865187 
0.703731 0.535111 -1.00341 -0.658622 -0.744091 0.112013 
0.415397 0.679792 -1.01761 0.192883 -0.151267 0.969492 
0.392701 0.706958 -0.998249 0.847229 -0.522114 0.0979828 
0.34968 0.721329 -1.01164 -0.0218726 -0.095928 0.995148 
0.343298 0.764579 -0.982224 -0.310817 0.318344 0.895573 
1.01732 0.782391 -0.483897 -0.716996 0.659352 0.226214 
1.0097 0.818317 -0.451496 -0.94165 -0.306704 -0.138664 
0.984396 0.763107 -0.470807 -0.959138 -0.108075 0.261483 
0.997255 0.840064 -0.608328 -0.835931 -0.414934 -0.359235 
0.995296 0.799533 -0.678734 -0.845226 0.364672 0.39065 
1.01882 0.905062 -0.411646 -0.963721 0.072409 0.256901 
1.01811 0.957103 -0.294278 -0.95839 -0.228943 0.170511 
0.29383 -0.308764 -0.985642 -0.208559 -0.101845 0.972693 
0.301482 -0.344289 -1.01739 0.864731 0.318988 0.387926 
0.426598 -0.33536 -1.01758 0.0987451 0.374717 0.921866 
0.460686 -0.351581 -0.999809 -0.0197949 -0.287904 0.957455 
0.298285 -0.419299 -0.983319 0.333469 -0.580575 0.742786 
0.730941 -0.226453 -1.0005 -0.308807 -0.0588202 0.949304 
0.726628 -0.195586 -1.00199 -0.0445321 -0.177932 0.983035 
0.765948 -0.229941 -0.981713 0.986792 0.107814 0.1209 
0.54507 -0.160772 -1.00886 -0.367076 -0.0883673 0.925984 
0.516677 -0.205579 -0.984034 -0.275061 0.424879 0.86245 
0.706253 -0.075235 -0.997935 -0.0282757 0.0755265 0.996743 
0.705655 -0.04248 -0.986198 -0.165445 -0.285393 0.944023 
0.296608 -0.769975 -1.00921 -0.234558 0.485602 0.842124 
0.279257 -0.801316 -0.994567 0.408415 -0.732101 0.545183 
0.453799 -0.842605 -0.981706 -0.257759 0.116327 0.959181 
0.467358 -0.791464 -0.994468 0.351772 -0.291587 0.889513 
0.323143 -0.920905 -0.991474 -0.0901973 0.0248523 0.995614 
0.267536 -0.90802 -1.00255 -0.0271101 0.240557 0.970256 
0.280552 -0.935456 -0.994942 -0.034357 0.0442616 0.998429 
0.236094 -0.923761 -0.988541 -0.0578963 -0.131359 0.989643 
0.251451 -0.976955 -0.999131 0.0382314 0.461216 0.886464 
0.297223 -0.978645 -0.995724 -0.0144426 -0.224101 0.974459 
0.278748 -0.984327 -0.988891 -0.0397573 0.602627 0.797032 
0.302352 -1.01644 -0.967544 -0.268698 0.952603 -0.142652 
0.344792 -0.983153 -0.980988 0.889571 -0.0727174 0.450972 
0.372078 -0.917581 -0.986999 0.184744 0.167737 0.968367 
0.421176 -0.904441 -1.00394 -0.15497 0.441279 0.883887 
0.335041 -0.910128 -1.00872 -0.193846 0.468944 0.861693 
0.420687 -0.986056 -0.910502 0.0179877 0.723918 0.689652 
0.575459 -0.853995 -0.986234 0.430535 -0.268614 0.861677 
0.516111 -0.76461 -1.00132 0.40596 0.509714 0.758543 
0.457088 -0.745316 -1.00116 0.218556 0.505856 0.834472 
0.577388 -0.930784 -0.991374 -0.339678 0.100478 0.935159 
0.361529 -0.861156 -0.984359 -0.42696 0.469089 0.773085 
0.393202 -0.837221 -1.00419 0.155355 0.312271 0.937204 
0.423702 -0.857317 -0.996186 -0.139308 -0.103779 0.984796 
0.791127 -0.997328 -0.50485 0.0564297 0.997666 -0.0384351 
0.811804 -0.999081 -0.485797 0.488349 0.866662 -0.102039 
0.851511 -0.981704 -0.609634 -0.00876038 0.999395 -0.0336625 
0.779399 -0.999353 -0.675018 0.175088 0.717714 0.673967 
0.913263 -1.00986 -0.417245 -0.127558 0.960835 -0.246019 
0.923636 -0.9972 -0.391555 -0.171634 0.980075 -0.0999731 
0.930323 -0.986816 -0.338809 0.201019 0.851539 0.484224 
0.918584 -0.984989 -0.348761 -0.245295 0.959946 -0.135401 
-1.00234 -0.304695 -0.98009 -0.0352064 -0.0567858 0.997765 
-1.01517 -0.326881 -0.978488 0.762395 0.139513 0.631894 
-0.890798 -0.436892 -0.997408 0.204527 -0.0808084 0.97552 
-0.886466 -0.478337 -0.983657 0.306707 0.104458 0.946055 
-0.9826 -0.413058 -0.914186 0.391819 -0.919242 -0.0383616 
-0.495587 -0.726535 -0.993332 -0.328575 0.00650981 0.944455 
-0.464109 -0.700141 -1.00849 0.382276 0.501598 0.776057 
-0.46141 -0.738292 -1.00646 0.715725 -0.462088 0.523653 
-0.585531 -0.559163 -0.990686 0.658508 0.0675339 0.749537 
-0.675651 -0.515126 -1.00677 0.344572 0.352222 0.870178 
-0.409717 -0.689905 -0.992653 0.11603 0.203469 0.972182 
-0.303127 -0.736471 -0.997499 -0.144507 -0.127058 0.981312 
-1.0123 -0.795717 -0.509261 0.841346 -0.104167 -0.530365 
-0.994358 -0.815301 -0.466632 0.95362 0.236375 -0.186374 
-1.00893 -0.765435 -0.453463 0.965573 0.167821 -0.198761 
-0.991147 -0.845828 -0.592608 0.997384 0.0513777 0.0508569 
-0.993109 -0.787786 -0.683224 0.958361 0.227007 0.173239 
-1.01785 -0.899722 -0.407995 0.995966 0.0443446 0.0780117 
-1.00698 -0.967126 -0.306695 0.816619 -0.570262 -0.0890773 
-0.334398 0.99083 0.911753 0.0555201 -0.759287 0.648383 
-0.349116 0.988754 0.870596 -0.141011 -0.982163 -0.124387 
-0.228927 0.996929 0.498495 0.353387 -0.899578 -0.256666 
-0.182444 0.995011 0.466876 0.730555 -0.65821 -0.181794 
-0.148736 1.01574 0.594282 -0.271305 -0.867984 -0.41593 
-0.235953 1.01007 0.680857 0.321933 -0.925328 -0.200316 
-0.07534 1.01745 0.414777 -0.150079 -0.983812 -0.0979308 
-0.045498 0.985672 0.305263 0.186397 -0.954175 0.234106 
0.904868 1.00199 0.362211 -0.0835862 -0.984196 0.156111 
1.01741 1.00075 0.29877 -0.225819 -0.970918 -0.0795192 
0.986094 0.951633 0.292444 -0.848894 0.264249 -0.457769 
0.899448 0.987113 0.446259 0.176013 -0.967386 0.182167 
0.99224 0.910131 0.318578 -0.967959 0.246941 0.0455623 
0.985876 0.814185 0.268128 -0.779028 -0.276721 -0.562619 
0.493369 1.00228 0.733198 -0.00209252 -0.918173 -0.396174 
0.467406 1.00582 0.701442 0.0209985 -0.998792 0.0444363 
0.583397 0.999433 0.55187 0.247488 -0.948347 0.198464 
0.674079 1.0003 0.547494 0.294579 -0.523916 -0.799209 
0.418125 0.986411 0.684831 0.140601 -0.986506 -0.0838915 
0.381135 0.99871 0.723605 -0.310042 -0.922373 -0.230438 
0.350444 1.00581 0.724582 -0.154075 -0.980212 -0.124278 
0.342493 0.991435 0.752634 0.224861 -0.893683 -0.388289 
1.00746 0.459863 0.270016 -0.941005 -0.317024 0.118347 
1.00008 0.475193 0.302625 -0.86289 -0.504925 0.0217133 
1.01833 0.608289 0.448395 -0.997485 -0.0346566 -0.0618275 
1.00741 0.681563 0.454488 -0.910476 0.352677 0.215992 
1.00548 0.422907 0.316738 -0.858496 0.276115 0.43214 
1.01734 0.364501 0.295225 -0.90229 0.161016 -0.399933 
0.265236 0.986107 -0.297453 0.0664001 -0.991255 -0.114034 
0.264374 1.01317 -0.319312 -0.967651 -0.211741 0.137177 
0.440368 1.00264 -0.344067 0.0430702 -0.908106 0.41652 
0.485266 1.00765 -0.347867 -0.185074 -0.979232 0.0827815 
0.331266 1.01126 -0.419897 -0.557895 -0.82127 0.119456 
0.284156 0.992904 -0.481066 -0.0779435 -0.975744 0.204568 
0.708683 0.98432 -0.23583 -0.0809951 -0.989711 -0.117947 
0.710724 1.00546 -0.189169 0.108012 -0.990907 0.0802283 
0.751339 1.01024 -0.234093 -0.123014 -0.98757 -0.0978431 
0.550166 1.01459 -0.170729 -0.310173 -0.112581 0.943991 
0.517654 1.0175 -0.229836 -0.0860918 -0.993917 0.0686829 
0.693082 0.995418 -0.081345 -0.207685 -0.851517 0.481441 
0.723562 0.983292 -0.013541 -0.0802597 -0.994613 0.0656009 
0.265624 0.992815 -0.799217 -0.178175 -0.840798 0.511186 
0.296294 0.988764 -0.828761 0.660197 -0.417027 -0.624683 
0.267102 1.01469 -0.773822 -0.253406 -0.963421 0.0872107 
0.448466 0.994927 -0.84926 0.53634 -0.828875 -0.159077 
0.483819 0.99158 -0.763478 0.0291381 -0.998808 -0.0391547 
0.305234 1.01295 -0.898759 -0.0523003 -0.996035 0.0719632 
0.29821 1.0052 -0.984835 0.379466 -0.290651 0.878366 
-0.976692 0.999323 -0.275761 0.0687611 0.184226 -0.980476 
-0.962873 0.998391 -0.329324 0.322727 -0.869072 0.374914 
-1.0091 0.986965 -0.264186 0.802875 -0.427624 -0.415366 
-0.997516 0.981061 -0.266738 0.802875 -0.427624 -0.415366 
-1.00907 0.979287 -0.297569 0.894015 0.390209 -0.220169 
-0.917941 1.01403 -0.482435 -0.555801 -0.831273 0.00843212 
-0.891595 0.983305 -0.496741 0.0484133 -0.998759 -0.011702 
-0.906916 0.983739 -0.425312 0.451204 -0.875797 -0.171448 
-0.999957 0.913918 -0.304041 0.967801 -0.251714 0.000855387 
-0.852494 1.01323 -0.736808 0.394078 -0.899196 -0.190131 
-0.764401 1.01455 -0.724615 -0.53633 -0.733166 0.418112 
-0.741017 1.01672 -0.71561 -0.0138343 -0.973486 0.228329 
-0.950035 1.00317 -0.66518 -0.0801696 -0.977337 0.19592 
-0.83902 0.99209 -0.524055 0.215847 -0.883576 0.415577 
-0.830193 0.984086 -0.571891 0.401902 -0.912974 0.0703835 
-0.866528 0.995414 -0.529352 -0.101609 -0.992866 -0.0623855 
-1.01632 0.504222 -0.277263 0.900149 0.288221 0.326589 
-0.999998 0.466078 -0.278049 0.979603 0.117269 0.163177 
-1.00202 0.483958 -0.23759 0.904305 0.41914 0.0809561 
-1.00346 0.588916 -0.435668 0.881144 -0.420808 -0.215653 
-0.988993 0.680774 -0.460438 0.915921 -0.400018 0.0327623 
-0.990304 0.419669 -0.304108 0.981138 -0.162466 -0.104756 
-0.989883 0.323423 -0.282819 0.816656 0.388167 -0.427082 
0.95463 -0.982043 -0.27217 -0.270044 0.955232 -0.12086 
0.964678 -1.00249 -0.319611 -0.480807 0.852502 -0.205095 
0.988221 -0.982074 -0.298695 0.499326 0.822297 0.272948 
0.983526 -0.973125 -0.277397 -0.704012 0.675187 -0.220204 
1.01103 -0.98602 -0.321183 0.545704 0.83649 0.0499174 
0.918716 -1.00415 -0.465548 0.23616 0.797923 0.55457 
0.890866 -0.994353 -0.512565 -0.28426 0.816791 -0.502044 
0.897199 -0.984657 -0.452483 -0.0870147 0.802371 -0.590448 
1.01406 -0.899046 -0.303337 -0.709781 0.0722562 -0.700707 
0.859122 -1.00266 -0.754251 -0.442747 0.413617 0.795547 
0.789695 -1.01017 -0.729125 0.0339962 0.888112 -0.458369 
0.731502 -0.984637 -0.726772 -0.720389 0.681806 -0.127199 
0.954663 -0.982702 -0.669878 -0.0602153 0.983505 -0.170562 
0.858942 -0.997969 -0.523771 0.0388383 0.996726 0.0709094 
0.851296 -0.992436 -0.571887 -0.333683 0.910348 0.244789 
0.883739 -1.01811 -0.547048 0.402473 0.915285 -0.0163668 
0.991359 -0.49569 -0.290635 -0.931785 0.0508147 0.359436 
1.00509 -0.479481 -0.265049 -0.962345 -0.257745 0.0863723 
1.01779 -0.482055 -0.24382 -0.964914 -0.147033 0.217536 
1.00458 -0.582259 -0.423671 -0.923246 -0.153239 0.352328 
0.981506 -0.683749 -0.478492 -0.983333 -0.17463 0.0506008 
0.987427 -0.421986 -0.330914 -0.943021 0.29653 0.150938 
0.997634 -0.320491 -0.278722 -0.884164 -0.456917 0.0973649 
0.266332 -1.00892 0.304466 0.264197 0.96389 0.0334203 
0.322412 -1.01659 0.340422 0.0667761 0.967068 -0.245602 
0.45146 -0.991778 0.352668 -0.165069 0.975714 -0.143996 
0.480431 -1.00919 0.334608 0.60982 0.792471 0.0104341 
0.3199 -1.01338 0.415196 0.106378 0.972405 0.207636 
0.735627 -1.00188 0.229251 -0.0637172 0.859808 -0.506626 
0.702471 -0.999464 0.180163 0.564184 0.811012 0.154778 
0.761677 -1.00451 0.228986 -0.423155 0.881682 -0.208751 
0.5713 -0.995998 0.165004 0.260606 0.948953 0.177688 
0.533423 -0.993984 0.220662 0.0314579 0.998776 -0.0381792 
0.705908 -0.990862 0.097096 -0.369928 0.821022 0.434828 
0.711233 -1.0127 0.042989 0.259043 0.843285 -0.470922 
0.298643 -1.00602 0.796299 0.0759258 0.927405 -0.366272 
0.265268 -0.994275 0.797506 0.00530975 0.998884 0.0469216 
0.426563 -1.01752 0.825741 0.0290375 0.997993 -0.0562785 
0.466741 -1.01172 0.796736 0.0668504 0.923867 -0.37683 
0.309719 -0.989843 0.917264 0.435511 0.81763 -0.376578 
0.296304 -0.997378 0.907423 0.103224 0.902344 0.418473 
0.276679 -1.01225 0.943137 0.270375 0.660556 -0.700402 
0.249399 -1.01243 0.893502 -0.241488 0.954247 0.17634 
0.256025 -1.00483 0.959678 -0.408242 0.341757 -0.846488 
0.266416 -0.989505 0.964789 0.293878 0.923614 -0.246117 
0.275483 -0.999926 0.990177 0.577054 0.798486 0.171545 
0.364162 -0.986542 0.901309 -0.219508 0.953956 -0.204414 
0.410178 -0.989741 0.909211 -0.617928 0.728936 -0.294649 
0.360638 -0.987961 0.915075 -0.215548 0.976414 0.0124377 
0.594033 -0.988279 0.862302 -0.174201 0.830134 -0.529652 
0.511014 -1.01801 0.798183 0.218563 0.972469 -0.0808361 
0.460041 -0.994349 0.733824 0.256415 0.920339 -0.295345 
0.606698 -0.990949 0.954514 0.114179 0.960289 0.254573 
0.375378 -1.01633 0.853282 0.068956 0.994293 -0.0814084 
0.422604 -1.00906 0.841692 -0.143927 0.987756 0.0601859 
0.408991 -1.0152 0.872551 -0.155423 0.987818 -0.00763818 
-1.00775 -0.989808 0.287361 0.922372 0.356474 0.14885 
-1.01532 -0.957698 0.271845 0.838507 0.0579749 0.541797 
-0.921587 -0.989491 0.456017 0.66806 0.671302 -0.321013 
-0.88108 -1.00034 0.468257 -0.217302 0.974888 -0.0487233 
-0.999643 -0.894517 0.297415 0.952353 -0.229046 -0.201399 
-1.00945 -0.814357 0.273443 0.937361 -0.140476 0.318781 
-0.490511 -0.983017 0.720594 -0.589544 0.800629 0.106917 
-0.452609 -1.00051 0.720928 0.394312 0.822179 0.410536 
-0.483861 -0.992118 0.737609 -0.644515 0.649691 0.403116 
-0.596565 -0.992564 0.558853 -0.0696408 0.990197 0.121076 
-0.692596 -0.988472 0.523888 0.147898 0.987281 0.0583289 
-0.407954 -1.01031 0.67783 -0.0461377 0.943153 0.329142 
-0.304899 -0.989399 0.728289 0.0206802 0.900971 -0.433386 
-1.01855 -0.456676 0.295198 0.96217 -0.0618249 -0.265341 
-1.01475 -0.479876 0.294566 0.517455 0.509605 -0.687418 
-1.01582 -0.599207 0.446587 0.980832 -0.0965917 0.16923 
-0.986815 -0.685224 0.462272 0.909033 0.415434 0.0327597 
-0.989179 -0.416627 0.318809 0.956156 -0.00763609 -0.292758 
-0.981934 -0.359794 0.290365 0.957895 0.188047 -0.21697 
0.993599 0.297548 0.280263 -0.721843 0.014063 0.691914 
1.01727 0.27115 0.314824 -0.867402 0.403147 -0.291694 
1.00443 0.461357 0.364779 -0.93212 -0.199323 -0.302363 
0.994458 0.489383 0.410207 -0.994031 0.0529502 -0.0953853 
1.01562 0.450283 0.334262 -0.998837 0.0481738 0.00177316 
1.00929 0.321111 0.42082 -0.980432 0.125387 0.151758 
0.981922 0.282421 0.469875 -0.774074 0.0353091 0.63211 
1.00466 0.751749 0.584074 -0.836971 -0.489429 -0.244823 
0.981919 0.729306 0.505127 -0.984161 0.116116 -0.133955 
1.01736 0.735511 0.477055 -0.86455 -0.454674 0.214069 
1.01569 0.642346 0.591891 -0.754763 -0.603924 0.256144 
1.01749 0.52765 0.374215 -0.398567 -0.504041 -0.766216 
1.00201 0.560869 0.418028 -0.709777 0.687009 0.155677 
1.00832 0.514612 0.402208 -0.882308 0.108308 -0.458042 
0.989185 0.268774 0.827647 -0.992571 0.113445 0.0439625 
1.01313 0.303431 0.852681 -0.859538 -0.185588 0.476184 
0.99108 0.419536 0.84656 -0.964995 0.144108 0.219127 
0.99464 0.465588 0.776624 -0.959299 0.0734075 0.272686 
0.999916 0.308357 0.912181 -0.670047 -0.724109 0.163413 
0.996598 0.293806 0.925035 -0.565602 0.61597 0.548338 
0.991505 0.277862 1.00937 0.390401 0.312527 -0.865976 
0.983601 0.391392 0.922219 -0.844025 0.385946 0.372381 
0.999934 0.412692 0.902113 -0.776381 0.619198 0.117587 
0.989685 0.329063 0.911453 -0.906546 0.421942 -0.011811 
1.01669 0.597677 0.851448 -0.432994 -0.76245 0.480819 
0.98935 0.500958 0.788162 -0.7922 0.0769858 0.605386 
1.00318 0.465517 0.763457 -0.965044 -0.00232606 0.262077 
1.00504 0.604558 0.956093 -0.976081 -0.216659 0.0180367 
1.00116 0.374866 0.832709 -0.90506 -0.189373 -0.380795 
1.0076 0.405551 0.841122 -0.391059 0.0962225 -0.915322 
1.01863 0.415267 0.882861 -0.978067 -0.123907 0.167427 
-1.01302 -0.287564 0.299921 0.95875 0.231044 -0.165579 
-0.993334 -0.28602 0.305572 0.947065 0.182083 -0.264412 
-1.01524 -0.476305 0.373252 0.973074 0.228832 -0.0276199 
-1.01822 -0.488787 0.421598 0.984316 0.151936 -0.0896558 
-1.01318 -0.439498 0.352384 0.774832 -0.465954 0.427226 
-1.0151 -0.306721 0.407953 0.928043 -0.065598 0.366651 
-1.01665 -0.265482 0.477437 0.937016 0.147476 0.316627 
-0.986442 -0.765957 0.582215 0.991421 -0.107331 -0.0746007 
-1.00884 -0.735005 0.490383 0.997528 -0.0330346 -0.0620251 
-0.998552 -0.701439 0.450478 0.980228 -0.078508 -0.181632 
-0.99092 -0.644052 0.592487 0.972005 -0.123836 0.199676 
-1.00439 -0.549133 0.378958 0.896246 -0.231142 -0.378571 
-0.989274 -0.554862 0.4054 0.631609 0.775091 -0.0174165 
-1.00495 -0.545365 0.418178 0.975273 0.220442 0.0157349 
-0.996428 -0.299664 0.797541 0.868307 -0.106792 -0.484394 
-1.00071 -0.299777 0.842626 0.906164 -0.391148 0.160843 
-1.00102 -0.447029 0.847762 0.937228 -0.0216836 -0.348043 
-0.985276 -0.478722 0.772816 0.93102 -0.329379 0.157197 
-1.00334 -0.321541 0.901626 0.921554 0.0753582 0.380866 
-1.00912 -0.271916 0.921467 0.954937 0.289133 0.0670615 
-1.01819 -0.297133 1.00815 0.623259 -0.409486 -0.666235 
-0.991312 -0.383959 0.902346 0.735709 0.67368 -0.0699123 
-0.983967 -0.399558 0.907373 0.735709 0.67368 -0.0699123 
-0.989427 -0.336535 0.89551 0.984536 -0.0993223 -0.144303 
-0.99476 -0.591026 0.828034 0.584436 -0.520179 0.622775 
-1.00565 -0.502274 0.767139 0.880914 -0.468659 0.0659475 
-0.987389 -0.487168 0.74109 0.993499 -0.0776531 0.0832507 
-0.997078 -0.588152 0.927964 0.976755 -0.214302 -0.00486714 
-0.98191 -0.363542 0.860753 0.856252 0.388934 0.339945 
-1.01462 -0.390051 0.852472 0.999838 0.0175223 0.00412419 
-0.99667 -0.399363 0.876467 0.957836 0.0637588 -0.28015 
0.755416 0.907532 -1.01619 0.443207 0.407101 0.798646 
0.732643 1.00558 -1.01473 -0.340391 -0.214747 0.915433 
0.701971 1.0148 -0.951564 -0.544 -0.789789 0.283368 
0.666468 0.924739 -0.988945 -0.149063 -0.504945 0.850183 
0.704893 0.830372 -1.01726 -0.322298 -0.107364 0.94053 
0.576456 1.01822 -0.918809 -0.0363648 -0.871134 -0.489697 
0.598778 1.00203 -0.886253 0.547347 -0.831992 -0.0905553 
0.559983 0.999806 -0.836397 0.234759 -0.970899 0.047358 
0.593225 1.01154 -0.837456 0.288667 -0.914953 0.282016 
0.715913 0.770854 -0.988466 0.0910754 -0.407765 0.908533 
0.544165 0.838357 -1.00189 0.381145 -0.0825706 0.92082 
0.520708 0.825609 -1.01837 -0.236944 -0.601668 0.762792 
0.644745 0.97473 -1.00967 0.0715228 0.558969 0.826098 
0.639585 0.95315 -0.984677 -0.39192 0.708227 0.587207 
0.620184 0.979903 -1.0141 0.135214 0.722122 0.678422 
0.59863 0.990328 -0.992472 -0.196823 -0.86735 0.457127 
0.547579 0.997757 -0.770976 0.0752125 -0.863246 0.499148 
0.522806 1.00262 -0.798686 0.000429447 -0.998483 -0.0550618 
0.487497 0.982008 -0.775522 0.277152 -0.951736 -0.13185 
0.459117 0.995043 -0.739611 0.0297678 -0.986351 0.161945 
0.584616 0.98463 -0.985062 -0.336758 -0.698534 0.631382 
0.583002 1.00082 -0.92021 0.124995 -0.896813 -0.424384 
0.366662 1.01267 -0.82948 -0.0914483 -0.991209 -0.0956141 
0.398805 1.01173 -0.857963 -0.183944 -0.9124 -0.365637 
0.411011 0.997838 -0.872143 -0.201427 -0.94714 -0.249706 
0.397195 1.01745 -0.92237 -0.116948 0.452606 0.884008 
0.236324 0.078948 -1.01361 -0.157259 -0.00585787 0.98754 
0.277998 -0.003814 -0.989751 0.157468 -0.404441 0.900906 
0.32798 -0.030993 -0.987281 -0.00208476 0.312634 0.949871 
0.344211 0.109191 -0.992741 0.215648 -0.303053 0.928254 
0.394794 -0.101425 -1.01392 -0.567853 -0.479528 0.669026 
0.417574 -0.142225 -0.990109 -0.195622 0.423241 0.884647 
0.424756 -0.17196 -1.01563 0.192828 0.397687 0.89703 
0.420512 -0.163178 -1.00257 0.945705 0.306315 0.108685 
0.193812 0.515661 -1.00607 -0.007386 -0.0886271 0.996037 
0.170723 0.525319 -1.01107 0.452907 0.0687843 0.888901 
0.168743 0.424467 -0.98336 0.408462 0.0344852 0.912123 
0.232685 0.295426 -1.01875 -0.421613 0.536691 0.730894 
0.075437 0.604537 -1.01003 -0.228865 0.0234664 0.973175 
0.09651 0.609824 -0.995673 -0.211479 0.430234 0.877596 
0.455457 -0.210134 -0.993986 0.148388 0.580304 0.800767 
0.476767 -0.171427 -0.983653 0.0188201 -0.0312133 0.999336 
0.487669 -0.216777 -0.982734 -0.119987 0.821065 0.558081 
0.515874 -0.261075 -1.01549 -0.0668659 -0.443934 0.893561 
0.421814 -0.046684 -0.983846 0.408535 -0.31843 0.855395 
0.419678 0.003176 -0.985419 0.682151 0.709106 0.178435 
0.423191 -0.079064 -0.992286 0.667037 -0.323006 0.671363 
0.632256 -0.14114 -1.00033 0.377213 0.0983719 0.920887 
0.589347 -0.16449 -0.994247 0.30483 -0.285993 0.908453 
0.592678 -0.131233 -0.983461 0.188863 0.3161 0.929737 
0.596855 -0.08657 -0.998511 -0.0667324 0.0994109 0.992806 
-0.265507 1.01122 -0.106915 -0.235649 -0.675156 0.699024 
-0.281101 0.986952 0.008297 -0.0643806 -0.997278 0.0359521 
-0.329594 1.0103 0.036353 0.0985608 -0.994985 0.0170557 
-0.327165 1.01234 -0.080602 0.380969 -0.780451 0.495741 
-0.388062 1.009 0.084017 -0.319361 -0.94033 -0.117423 
-0.4811 0.99117 0.176142 -0.262551 -0.869668 -0.418025 
-0.181615 0.993799 -0.542862 0.0282647 -0.958945 0.28218 
-0.164001 0.995785 -0.544335 0.264626 -0.961718 -0.0712135 
-0.157097 1.01416 -0.410479 0.178686 -0.944682 0.275041 
-0.207995 0.986079 -0.295474 0.254884 -0.94379 -0.210464 
-0.112443 1.00136 -0.587404 -0.474288 -0.827049 0.301728 
-0.105757 0.986744 -0.624635 -0.525663 -0.841054 -0.127699 
-0.801831 1.01801 0.535563 0.180323 -0.951757 -0.248278 
-0.834049 1.00068 0.516655 0.196547 -0.959799 0.200386 
-0.830495 0.984467 0.404795 -0.304188 -0.915745 0.262451 
-0.789706 1.01757 0.301113 0.239495 -0.936336 0.256745 
-0.887608 0.997405 0.583531 -0.257739 -0.947826 0.187609 
-0.915329 0.986027 0.622506 -0.039334 -0.983199 -0.178248 
0.920641 -0.650733 -0.982032 -0.541943 0.00993284 0.840357 
1.0105 -0.687504 -0.952168 -0.771686 0.0763798 -0.6314 
0.9939 -0.641268 -0.960043 -0.952469 -0.088508 -0.291493 
0.920276 -0.561973 -0.984292 0.270943 -0.021598 0.962353 
0.81804 -0.536236 -0.988954 0.4055 -0.0223898 0.913821 
0.991357 -0.592726 -0.912352 -0.947371 -0.0101198 -0.319977 
0.78898 -0.515499 -1.00638 -0.292454 0.398841 0.869136 
0.839163 -0.404584 -0.99061 -0.383337 0.2924 0.876102 
0.849445 -0.392556 -1.01145 -0.428538 0.545222 0.720478 
0.96926 -0.627787 -0.989001 -0.401502 -0.129186 0.906701 
0.949113 -0.587746 -1.01146 0.0862839 0.40747 0.909133 
0.966153 -0.600615 -0.981589 -0.262401 0.444613 0.856426 
0.987872 -0.577369 -1.00371 -0.539556 0.148663 0.828721 
0.986551 -0.201914 -0.497713 -0.948241 0.00529957 -0.317508 
1.01254 -0.182449 -0.450145 -0.929311 0.357187 -0.0938025 
0.991886 -0.144344 -0.57646 -0.964013 0.0221865 -0.264928 
1.01758 -0.229046 -0.694505 -0.892868 0.29775 0.337833 
1.00979 -0.080889 -0.415889 -0.975358 -0.0162744 -0.220026 
1.0151 -0.035173 -0.300049 -0.958955 0.251413 -0.131133 
0.275137 0.737089 -0.986957 0.0362575 -0.574929 0.817399 
0.304857 0.700938 -1.0119 -0.0838423 0.0550721 0.994956 
0.275298 0.717521 -1.00531 0.201587 -0.261182 0.944006 
0.269988 0.693584 -1.01125 0.266244 -0.193032 0.94438 
0.257026 0.7308 -1.00201 0.339933 -0.252044 0.906046 
0.473865 0.640079 -0.981724 -0.545876 0.132686 0.827293 
0.500012 0.61041 -1.00949 -0.834922 -0.549743 -0.0262249 
0.42385 0.653457 -1.01826 0.11051 0.289743 0.950703 
0.3093 0.598383 -0.998263 0.186441 -0.0419992 0.981568 
0.276004 0.549937 -0.986584 -0.313629 -0.150701 0.93751 
0.71833 0.516615 -1.0172 -0.483922 -0.557431 0.674604 
0.711863 0.525896 -1.00752 -0.271854 -0.865227 0.421281 
0.669395 0.420483 -0.985376 -0.0482222 -0.0263246 0.99849 
0.665054 0.377369 -1.00074 0.531076 -0.415137 0.73866 
0.530769 0.634578 -0.985112 0.0178744 0.411629 0.911176 
0.571772 0.597236 -0.992827 -0.67486 0.19539 0.711609 
0.529946 0.59329 -1.01086 -0.697477 -0.670323 -0.253363 
0.505759 0.26341 -0.992253 0.107442 0.397287 0.911383 
0.515933 0.287709 -1.01227 -0.245207 0.056351 0.967832 
0.3897 0.433875 -1.00834 0.655817 0.271136 0.704549 
0.383251 0.464711 -1.00645 -0.370972 -0.131622 0.919269 
0.587169 0.307677 -1.00863 -0.156978 -0.0973725 0.98279 
0.688018 0.273668 -0.984494 -0.242339 -0.166271 0.955838 
0.987011 0.258643 -0.077164 -0.770721 -0.0696764 0.633351 
0.998289 0.268563 0.007021 -0.988699 0.0482871 -0.141928 
0.997122 0.295072 0.049813 -0.935742 -0.213851 0.280456 
0.99615 0.296603 0.016802 -0.985959 -0.104867 0.129956 
0.981775 0.36252 -0.086457 -0.955172 0.284032 -0.0835023 
0.987597 0.391741 0.090473 -0.94514 -0.0880961 0.314562 
1.01242 0.452148 0.176898 -0.807473 -0.547187 -0.220394 
1.01204 0.183262 -0.539339 -0.625628 -0.707532 0.328615 
0.986855 0.14681 -0.541185 -0.927254 0.362144 0.0951348 
1.0121 0.166501 -0.413594 0.448732 -0.402011 -0.79814 
1.00237 0.224662 -0.295532 -0.854811 0.0897937 -0.511111 
