ply
format ascii 1.0
comment author: F. Lafarge
element vertex 1171
property float x
property float y
property float z
property uchar red
property uchar green
property uchar blue
end_header
-0.349746 0.113838 -1.000820 254 212 205
-0.532123 0.348674 -0.991598 254 212 205
-0.351847 0.540759 -0.992966 254 212 205
-0.362766 0.547014 -1.004460 254 212 205
-0.485025 0.477897 -1.018400 254 212 205
-0.360177 0.110820 -1.011630 254 212 205
-0.347808 0.112382 -1.007680 254 212 205
-0.983931 0.437362 0.614131 183 229 175
-0.981207 0.438604 0.639930 183 229 175
-0.986420 0.468893 0.589836 183 229 175
-1.006810 0.466240 0.595934 183 229 175
-0.985109 0.465914 0.663701 183 229 175
-0.991958 0.502782 0.609107 183 229 175
-1.015360 0.470380 0.557247 183 229 175
-0.988415 0.511345 0.606857 183 229 175
-0.995494 0.523639 0.603013 183 229 175
-1.016410 0.524722 0.587428 183 229 175
-1.011300 0.482600 0.525497 183 229 175
-1.016000 0.506206 0.543592 183 229 175
-1.001510 0.470369 0.518673 183 229 175
-1.003390 0.548370 0.534841 183 229 175
-1.016800 0.493050 0.496366 183 229 175
-0.994900 0.475486 0.490703 183 229 175
-0.997995 0.464667 0.469446 183 229 175
-0.993560 0.472601 0.459896 183 229 175
-1.014200 0.555738 0.498334 183 229 175
-0.996328 0.482855 0.427761 183 229 175
-0.989237 0.493555 0.419032 183 229 175
-0.990246 0.499918 0.405047 183 229 175
-1.013600 0.493200 0.404137 183 229 175
-0.999861 0.435958 0.391279 183 229 175
-0.995431 0.390162 0.415471 183 229 175
-0.981189 0.386353 0.411873 183 229 175
-0.995467 0.433770 0.886166 225 186 144
-0.983965 0.439143 0.879179 225 186 144
-1.011240 0.424174 0.871644 225 186 144
-0.986953 0.379388 0.841261 225 186 144
-1.002740 0.395882 0.818078 225 186 144
-0.985628 0.422341 0.812153 225 186 144
-1.005960 0.406596 0.799029 225 186 144
-0.982670 0.325514 0.855497 225 186 144
-1.000380 0.320776 0.857495 225 186 144
-0.999734 0.299421 0.875436 225 186 144
-1.004320 0.053134 -0.441729 160 153 234
-0.990643 0.040773 -0.458796 160 153 234
-1.018090 0.070414 -0.456961 160 153 234
-0.994761 0.066576 -0.468623 160 153 234
-1.016670 0.088257 -0.420362 160 153 234
-1.017000 0.037316 -0.400044 160 153 234
-1.011810 0.059475 -0.487613 160 153 234
-0.981608 0.081129 -0.410540 160 153 234
-0.985305 0.064844 -0.494115 160 153 234
-0.987003 -0.015794 -0.477960 160 153 234
-0.992412 0.093665 -0.508129 160 153 234
-0.992391 0.112162 -0.505388 160 153 234
-0.987488 0.081233 -0.373813 160 153 234
-0.992279 0.040927 -0.358055 160 153 234
-1.005530 0.111963 -0.522377 160 153 234
-0.993016 -0.046851 -0.433563 160 153 234
-1.005670 0.141574 -0.500955 160 153 234
-0.994913 0.139210 -0.546987 160 153 234
-1.005210 0.096917 -0.352355 160 153 234
-1.002240 0.135320 -0.357372 160 153 234
-0.987623 0.007956 -0.317044 160 153 234
-1.015530 -0.039867 -0.421642 160 153 234
-1.017230 -0.049862 -0.419473 160 153 234
-0.984465 0.193235 -0.533262 160 153 234
-1.010200 0.083275 -0.316359 160 153 234
-1.002790 0.140297 -0.378099 160 153 234
-0.998204 0.146800 -0.389590 160 153 234
-0.991175 0.170381 -0.342211 160 153 234
-0.998556 0.154057 -0.407100 160 153 234
-1.003700 0.180089 -0.327684 160 153 234
-1.003690 0.020702 -0.292999 160 153 234
-1.011920 -0.024916 -0.353786 160 153 234
-0.987686 0.220377 -0.497137 160 153 234
-1.004610 0.217847 -0.496306 160 153 234
-0.993948 0.236891 -0.509017 160 153 234
-1.004950 0.067764 -0.295783 160 153 234
-0.994628 0.066570 -0.297956 160 153 234
-0.986161 0.186115 -0.338742 160 153 234
-1.005640 0.242577 -0.510983 160 153 234
-1.013980 0.252139 -0.518325 160 153 234
-1.005350 0.262640 -0.481754 160 153 234
-1.009350 0.236646 -0.456039 160 153 234
-1.007630 0.231532 -0.443209 160 153 234
-1.005700 0.251002 -0.449899 160 153 234
-0.996798 0.256573 -0.400919 160 153 234
-1.014670 0.243980 -0.383091 160 153 234
-1.015550 0.448320 -0.360368 148 213 212
-1.007570 0.463512 -0.358571 148 213 212
-0.989820 0.440570 -0.344081 148 213 212
-0.985176 0.456161 -0.358507 148 213 212
-1.008250 0.455012 -0.330159 148 213 212
-1.014910 0.453344 -0.321074 148 213 212
-1.000790 0.423772 -0.321456 148 213 212
-0.982527 0.483522 -0.279176 148 213 212
-0.992571 0.465342 -0.247736 148 213 212
-1.006370 0.483237 -0.249490 148 213 212
-1.002020 0.483958 -0.237590 148 213 212
-1.010850 0.471874 -0.186867 148 213 212
0.988075 -0.060509 0.699892 184 243 153
1.008380 -0.052242 0.705521 184 243 153
1.004470 -0.012996 0.704711 184 243 153
0.986484 -0.038984 0.749689 184 243 153
1.018540 -0.065734 0.746926 184 243 153
1.001230 -0.035888 0.764986 184 243 153
1.012670 -0.031951 0.769550 184 243 153
1.010450 -0.010972 0.759327 184 243 153
1.006340 -0.004183 0.783073 184 243 153
1.001040 -0.057099 0.810978 184 243 153
1.004840 0.041258 0.780103 184 243 153
1.004830 -0.073650 0.817157 184 243 153
1.002400 -0.111531 0.812446 184 243 153
0.988617 -0.117162 0.811679 184 243 153
1.008970 -0.081115 0.868157 184 243 153
1.016390 -0.142950 0.824221 184 243 153
0.988849 -0.134974 -0.328959 140 134 208
1.005160 -0.157385 -0.305806 140 134 208
1.010200 -0.156599 -0.305473 140 134 208
1.000330 -0.122406 -0.284109 140 134 208
1.014870 -0.147416 -0.265045 140 134 208
1.013800 -0.121037 -0.266658 140 134 208
1.006730 -0.157210 -0.250111 140 134 208
1.014840 -0.136074 -0.252100 140 134 208
0.993806 -0.088807 -0.286529 140 134 208
0.989733 -0.129573 -0.247895 140 134 208
1.001920 -0.117787 -0.227832 140 134 208
0.999850 -0.104352 -0.197389 140 134 208
-1.010310 -0.677588 -0.185951 144 214 247
-0.993666 -0.683111 -0.154755 144 214 247
-0.987683 -0.647486 -0.218300 144 214 247
-0.985566 -0.669975 -0.232532 144 214 247
-0.990102 -0.601941 -0.198959 144 214 247
-1.008980 -0.591282 -0.203863 144 214 247
-0.999405 -0.583700 -0.173160 144 214 247
-0.993887 -0.585947 -0.256000 144 214 247
-1.008590 -0.558206 -0.136653 144 214 247
-1.010210 -0.519738 -0.142710 144 214 247
-1.009220 -0.514073 -0.171823 144 214 247
-1.002950 -0.491414 -0.168671 144 214 247
-1.002810 -0.522253 -0.185408 144 214 247
-1.006070 -0.519662 -0.189414 144 214 247
-0.995139 -0.500263 -0.244008 144 214 247
-0.992168 -0.515322 -0.247267 144 214 247
-0.997618 -0.482492 -0.238944 144 214 247
-1.004980 -0.454815 -0.228930 144 214 247
-1.014780 -0.414300 -0.268234 144 214 247
-1.017240 -0.381215 -0.295005 144 214 247
-0.985254 -0.391485 -0.233058 144 214 247
-1.012260 -0.402330 -0.331571 144 214 247
-1.009970 -0.335162 -0.263060 144 214 247
-1.010370 -0.364786 -0.350666 144 214 247
-0.981956 -0.405694 -0.336733 144 214 247
-0.991412 -0.435961 -0.338076 144 214 247
-0.983516 -0.365024 -0.345629 144 214 247
-1.002840 -0.387407 -0.387376 144 214 247
-0.998749 -0.316127 -0.335941 144 214 247
-1.013920 -0.463075 -0.341866 144 214 247
0.303901 -0.982150 -0.068970 175 195 249
0.302063 -0.996041 -0.069016 175 195 249
0.288010 -1.001070 -0.062482 175 195 249
0.293743 -0.996140 -0.029736 175 195 249
0.307514 -0.990215 -0.004307 175 195 249
0.300673 -0.989309 0.014134 175 195 249
0.331366 -1.007570 0.020381 175 195 249
0.254954 -1.005280 0.014224 175 195 249
0.356741 -0.994004 0.034438 175 195 249
0.246938 -0.995857 0.041054 175 195 249
0.410744 -1.004800 0.021227 175 195 249
0.745957 -0.992239 -0.054044 214 151 153
0.757396 -0.988146 -0.044088 214 151 153
0.786227 -0.997936 -0.033429 214 151 153
0.799295 -1.014470 -0.031589 214 151 153
0.814468 -0.991671 -0.052532 214 151 153
0.788372 -1.004210 0.005072 214 151 153
0.822472 -1.011810 0.018649 214 151 153
0.857965 -1.018000 -0.031776 214 151 153
0.856765 -1.001290 -0.064401 214 151 153
0.841810 -0.992231 0.011593 214 151 153
0.829202 -0.990064 0.060036 214 151 153
0.847531 -0.984043 0.063828 214 151 153
0.857958 -1.000230 -0.102757 214 151 153
0.885264 -0.995554 -0.099148 214 151 153
0.913942 -0.989067 -0.045018 214 151 153
0.858891 -0.985535 0.058915 214 151 153
0.815692 -1.008260 0.080893 214 151 153
0.820600 -0.999426 0.091939 214 151 153
0.864445 -0.983646 0.069096 214 151 153
0.810263 -0.984421 0.093923 214 151 153
0.781566 -0.995933 0.080504 214 151 153
0.840869 -1.010830 -0.135435 214 151 153
0.827359 -0.995463 -0.132703 214 151 153
0.840131 -0.989952 -0.150076 214 151 153
0.897759 -1.006480 -0.144785 214 151 153
0.934051 -0.999807 -0.108600 214 151 153
0.781506 -1.016260 0.101579 214 151 153
0.775213 -1.013510 0.103029 214 151 153
0.746779 -1.007890 0.099683 214 151 153
0.802100 -0.989222 -0.156810 214 151 153
0.715835 -0.996251 0.085881 214 151 153
0.709075 -1.012770 0.114274 214 151 153
0.705908 -0.990862 0.097096 214 151 153
0.703223 -1.005600 0.091623 214 151 153
0.692387 -0.992607 0.082946 214 151 153
0.662624 -1.016820 0.136982 214 151 153
0.633710 -0.990268 0.131090 214 151 153
-0.573213 1.002640 -0.391859 183 255 208
-0.606965 0.991163 -0.400113 183 255 208
-0.562088 0.998749 -0.436727 183 255 208
-0.541577 0.989262 -0.353497 183 255 208
-0.507599 0.995853 -0.437036 183 255 208
-0.510339 0.998490 -0.357929 183 255 208
-0.517626 1.012290 -0.365874 183 255 208
-0.498560 0.988874 -0.335355 183 255 208
-0.500473 0.988482 -0.431156 183 255 208
-0.490328 1.012650 -0.439526 183 255 208
-0.471010 0.999904 -0.409078 183 255 208
-0.495363 1.016410 -0.324851 183 255 208
-0.471790 1.008260 -0.326195 183 255 208
-0.470396 1.012400 -0.314066 183 255 208
-0.463507 0.986690 -0.295554 183 255 208
-0.457227 0.991587 -0.236618 183 255 208
-0.464047 0.991240 -0.232232 183 255 208
-0.506490 1.000550 -0.246872 183 255 208
-0.998306 0.681264 0.383617 135 179 224
-0.994069 0.672692 0.378228 135 179 224
-1.005000 0.668187 0.356770 135 179 224
-1.013750 0.686996 0.345834 135 179 224
-1.012180 0.625788 0.377074 135 179 224
-0.983370 0.658262 0.306421 135 179 224
-1.018100 0.713141 0.316059 135 179 224
-0.997161 0.731857 0.332958 135 179 224
-1.008260 0.648825 0.283278 135 179 224
-1.000040 0.643721 0.276014 135 179 224
-0.863039 0.982276 0.194085 168 207 145
-0.862711 0.989541 0.181107 168 207 145
-0.838342 0.997522 0.196527 168 207 145
-0.838013 0.996914 0.209359 168 207 145
-0.850464 1.018400 0.159447 168 207 145
-0.797956 0.981684 0.207100 168 207 145
-0.781748 0.995099 0.217180 168 207 145
-0.800028 0.999979 0.152790 168 207 145
-0.766873 1.011920 0.210391 168 207 145
-0.790042 0.988184 0.251122 168 207 145
-0.795864 0.992172 0.110760 168 207 145
-0.800737 0.996010 0.278968 168 207 145
-0.761741 0.986521 0.078694 168 207 145
-0.862650 1.003150 0.278753 168 207 145
-0.760586 0.992578 0.057137 168 207 145
-0.736310 1.017980 0.057315 168 207 145
-0.731210 0.993565 0.033479 168 207 145
-0.717601 0.996734 0.019988 168 207 145
-0.702327 0.990024 -0.009723 168 207 145
-0.685975 1.009020 -0.015274 168 207 145
-0.694651 0.987372 -0.030650 168 207 145
-0.675317 1.005880 -0.039570 168 207 145
-0.627942 1.014500 -0.043535 168 207 145
0.007279 1.006020 -0.441082 240 230 232
0.005903 0.998006 -0.444967 240 230 232
-0.021596 1.012620 -0.426324 240 230 232
-0.020614 1.008490 -0.421503 240 230 232
-0.030146 1.013810 -0.424452 240 230 232
-0.072687 0.998945 -0.458255 240 230 232
-0.086082 1.014590 -0.481010 240 230 232
-0.118766 1.007370 -0.458692 240 230 232
-0.144311 1.004770 -0.436495 240 230 232
-0.157154 0.985084 -0.432531 240 230 232
0.327931 0.982902 0.756594 181 150 225
0.319516 0.981890 0.757533 181 150 225
0.310957 1.003140 0.742759 181 150 225
0.316468 1.008050 0.737429 181 150 225
0.265392 0.988247 0.717316 181 150 225
0.347108 0.998382 0.691638 181 150 225
0.222138 0.993756 0.734450 181 150 225
0.357046 1.005210 0.688636 181 150 225
0.358766 1.013930 0.661260 181 150 225
0.353916 1.011060 0.654509 181 150 225
0.384563 0.992545 0.716747 181 150 225
0.204343 1.013370 0.745497 181 150 225
0.211480 0.989361 0.776868 181 150 225
0.202012 1.003130 0.795065 181 150 225
0.148590 0.988494 0.804300 181 150 225
0.122692 1.017830 0.798127 181 150 225
0.123601 1.008610 0.848046 181 150 225
0.105382 0.990598 0.876937 181 150 225
0.065246 1.013320 0.869386 181 150 225
-0.993556 -0.808186 0.136729 150 247 179
-1.011840 -0.831885 0.152452 150 247 179
-1.013530 -0.858009 0.170302 150 247 179
-0.994958 -0.876024 0.222933 150 247 179
-1.001150 -0.883996 0.232103 150 247 179
-0.981243 -0.913965 0.242797 150 247 179
-0.993291 -0.932068 0.263434 150 247 179
-0.989633 -0.944498 0.247514 150 247 179
-0.990363 -0.963558 0.262161 150 247 179
-1.015320 -0.957698 0.271845 150 247 179
-0.999344 -1.010170 0.259962 150 247 179
-0.670934 -0.138178 -1.007380 253 172 141
-0.683400 -0.127432 -1.000560 253 172 141
-0.648980 -0.137005 -0.999077 253 172 141
-0.692252 -0.156086 -1.001730 253 172 141
-0.669878 -0.111672 -0.988294 253 172 141
-0.633698 -0.154893 -0.989384 253 172 141
-0.613380 -0.119872 -1.010250 253 172 141
-0.611881 -0.153980 -1.013840 253 172 141
-0.656267 -0.060467 -0.985375 253 172 141
-0.633359 -0.209928 -0.987122 253 172 141
-0.617636 -0.033824 -0.988181 253 172 141
-0.704571 -0.032819 -0.992791 253 172 141
-0.645829 -0.222225 -1.010870 253 172 141
-0.659410 -0.230819 -1.005300 253 172 141
-0.643055 -0.268090 -0.982646 253 172 141
-0.591574 -0.045764 -1.009540 253 172 141
-0.589820 -0.046566 -1.014170 253 172 141
-0.577712 -0.017503 -0.995283 253 172 141
-0.718046 -0.039457 -1.002920 253 172 141
-0.731239 0.015709 -0.988399 253 172 141
-0.675660 0.018783 -1.006310 253 172 141
-0.673362 -0.272413 -1.004640 253 172 141
-0.712226 -0.226110 -1.002310 253 172 141
-0.680401 -0.282638 -0.993224 253 172 141
-0.614164 -0.291324 -0.987637 253 172 141
-0.593319 -0.287214 -0.992598 253 172 141
-0.563438 -0.022729 -1.000700 253 172 141
-0.770247 -0.004457 -1.005140 253 172 141
-0.731458 -0.267810 -1.008570 253 172 141
-0.591029 -0.328077 -1.013810 253 172 141
-0.574953 -0.327269 -0.989627 253 172 141
-0.571208 -0.328381 -0.994840 253 172 141
-0.556288 -0.310190 -0.984459 253 172 141
-0.818458 -0.007323 -0.985451 253 172 141
-0.598243 -0.367895 -1.006370 253 172 141
-0.553843 -0.345950 -1.000290 253 172 141
-0.543252 -0.327884 -0.997132 253 172 141
-0.538571 -0.271839 -0.993671 253 172 141
-0.511571 -0.319062 -1.015090 253 172 141
-0.633013 -0.366007 -0.994535 253 172 141
-0.502355 -0.266641 -1.006340 253 172 141
-0.620027 0.075961 -0.984162 194 142 248
-0.623247 0.109412 -1.012000 194 142 248
-0.609125 0.116559 -0.996989 194 142 248
-0.663151 0.083888 -0.996805 194 142 248
-0.666145 0.080137 -1.003720 194 142 248
-0.564992 0.075963 -0.986123 194 142 248
-0.697158 0.112607 -1.013920 194 142 248
-0.696858 0.129214 -0.984749 194 142 248
-0.509035 0.074782 -1.012800 194 142 248
-0.726824 0.162149 -1.002270 194 142 248
-0.730871 0.158085 -0.996550 194 142 248
-0.499552 0.047752 -0.993147 194 142 248
-0.467007 0.097334 -1.005930 194 142 248
-0.748429 0.157158 -1.017990 194 142 248
-0.452008 0.065643 -0.987548 194 142 248
-0.413696 0.069198 -0.996102 194 142 248
-0.411911 0.060063 -1.017620 194 142 248
-0.390743 0.049539 -0.994001 194 142 248
-0.406255 0.115547 -0.996491 194 142 248
-0.879100 0.191300 -1.008100 248 216 137
-0.884031 0.203222 -0.996119 248 216 137
-0.865009 0.184393 -1.016330 248 216 137
-0.889657 0.206453 -0.996664 248 216 137
-0.887086 0.211880 -1.007990 248 216 137
-0.891706 0.194380 -0.988934 248 216 137
-0.853891 0.194499 -0.996703 248 216 137
-0.843612 0.188073 -1.000430 248 216 137
-0.855990 0.163087 -1.013220 248 216 137
-0.864469 0.216484 -0.984848 248 216 137
-0.832574 0.205475 -0.996074 248 216 137
-0.904957 0.245482 -1.015750 248 216 137
-0.908075 0.249984 -1.011420 248 216 137
-0.940973 0.228047 -1.000470 248 216 137
-0.861906 0.263845 -1.010950 248 216 137
-0.801374 0.189888 -1.002200 248 216 137
-0.796999 0.217737 -0.983561 248 216 137
-0.960395 0.268816 -1.012520 248 216 137
-0.771478 0.239825 -1.006180 248 216 137
-0.782904 0.250426 -1.008830 248 216 137
-0.761618 0.260784 -0.988792 248 216 137
-0.976725 0.283677 -1.002590 248 216 137
-0.721350 0.242684 -1.014530 248 216 137
-0.699579 0.276123 -1.013300 248 216 137
-0.674156 0.275714 -0.997832 248 216 137
0.801997 -1.010730 0.131370 201 243 160
0.788681 -0.991342 0.135019 201 243 160
0.760886 -1.017150 0.177118 201 243 160
0.712321 -1.005730 0.172290 201 243 160
0.689887 -0.981246 0.179339 201 243 160
0.684376 -0.999731 0.152505 201 243 160
0.672543 -0.984322 0.169330 201 243 160
0.722551 -1.004380 0.218103 201 243 160
0.694433 -1.013450 0.216803 201 243 160
0.689138 -0.990219 0.216600 201 243 160
0.654606 -0.988837 0.164134 201 243 160
0.648832 -0.995398 0.142178 201 243 160
0.668479 -0.989339 0.114901 201 243 160
0.648771 -0.999297 0.110129 201 243 160
0.640736 -0.997364 0.107147 201 243 160
0.592567 -1.000430 0.128793 201 243 160
0.636965 -1.015360 0.088036 201 243 160
0.594581 -1.018260 0.114295 201 243 160
0.644980 -0.982600 0.049741 201 243 160
0.664159 -1.011230 0.038265 201 243 160
0.702722 -1.011970 0.027473 201 243 160
0.711233 -1.012700 0.042989 201 243 160
0.715711 -0.997973 0.044081 201 243 160
0.752431 -1.006830 0.049290 201 243 160
-0.136420 -0.817369 -0.984098 228 212 224
-0.141901 -0.844164 -0.995692 228 212 224
-0.116838 -0.839058 -0.996758 228 212 224
-0.157422 -0.841004 -0.992216 228 212 224
-0.118307 -0.835863 -1.007990 228 212 224
-0.107011 -0.862996 -1.014180 228 212 224
-0.174844 -0.867120 -1.007740 228 212 224
-0.074887 -0.861223 -0.998610 228 212 224
-0.179375 -0.881468 -1.016270 228 212 224
-0.186458 -0.890747 -1.013790 228 212 224
-0.216080 -0.883279 -0.998692 228 212 224
-0.049311 -0.897324 -1.012700 228 212 224
-0.236124 -0.907621 -0.982724 228 212 224
-0.249086 -0.925547 -1.009800 228 212 224
-0.265594 -0.923426 -1.004820 228 212 224
-0.279314 -0.900528 -0.987463 228 212 224
-0.304146 -0.912366 -1.004120 228 212 224
-0.325527 -0.909353 -0.992587 228 212 224
-0.347448 -0.907944 -0.987521 228 212 224
-0.353723 -0.915688 -1.006770 228 212 224
-0.350053 -0.952707 -0.993469 228 212 224
-0.358090 -0.979631 -1.000800 228 212 224
-0.311952 -1.003180 -1.016010 228 212 224
-0.304495 -1.012400 -1.016350 228 212 224
-0.120563 0.454679 -0.998335 230 225 251
-0.118400 0.454517 -0.999724 230 225 251
-0.106203 0.492558 -0.996912 230 225 251
-0.110584 0.492195 -1.016480 230 225 251
-0.160301 0.432901 -0.999578 230 225 251
-0.111935 0.410075 -0.989178 230 225 251
-0.124627 0.514592 -1.005520 230 225 251
-0.111461 0.550434 -1.010070 230 225 251
-0.140228 0.580724 -0.989586 230 225 251
-0.120977 0.610902 -0.994128 230 225 251
-0.107826 0.642434 -0.998721 230 225 251
-0.163425 0.646873 -1.013630 230 225 251
0.559575 0.453049 -0.984976 204 169 254
0.536509 0.456082 -1.015840 204 169 254
0.529810 0.470525 -1.008090 204 169 254
0.595725 0.438577 -1.006830 204 169 254
0.509948 0.505540 -1.009960 204 169 254
0.516033 0.512885 -1.004430 204 169 254
0.468744 0.505579 -1.002310 204 169 254
0.515420 0.553732 -0.999967 204 169 254
0.439434 0.461924 -1.018750 204 169 254
0.414607 0.484628 -0.992418 204 169 254
0.988301 -0.072919 -0.672163 199 183 189
0.983594 -0.085946 -0.679559 199 183 189
1.000990 -0.100172 -0.671199 199 183 189
0.994794 -0.034954 -0.695119 199 183 189
1.017270 -0.025931 -0.673328 199 183 189
0.992545 -0.124548 -0.704956 199 183 189
1.004460 -0.089414 -0.731789 199 183 189
1.016900 -0.110051 -0.617869 199 183 189
1.004070 -0.004253 -0.674685 199 183 189
1.014490 0.010267 -0.671601 199 183 189
1.014010 0.015716 -0.679294 199 183 189
1.017790 -0.101215 -0.611276 199 183 189
1.018300 -0.098989 -0.609303 199 183 189
1.007070 0.046822 -0.716761 199 183 189
0.996677 -0.097662 -0.560654 199 183 189
0.981817 -0.071782 -0.560199 199 183 189
0.921147 -0.300308 -1.016370 162 166 232
0.915931 -0.313665 -1.003180 162 166 232
0.921675 -0.315376 -0.999202 162 166 232
0.927097 -0.296310 -0.981140 162 166 232
0.933040 -0.329815 -0.993707 162 166 232
0.970309 -0.289121 -1.001330 162 166 232
0.969289 -0.278838 -1.008590 162 166 232
0.967594 -0.280713 -0.987180 162 166 232
0.976289 -0.330985 -0.999357 162 166 232
0.981422 -0.330150 -1.007240 162 166 232
0.994804 -0.313938 -0.998583 162 166 232
1.002010 -0.344217 -0.981817 162 166 232
0.965695 -0.382600 -0.984717 162 166 232
0.983115 -0.415283 -0.972562 162 166 232
1.016980 -0.412683 -0.971183 162 166 232
0.562348 0.119480 -1.011270 227 141 196
0.592426 0.123813 -0.985014 227 141 196
0.534075 0.155988 -0.995065 227 141 196
0.542132 0.074494 -1.015440 227 141 196
0.626512 0.150453 -1.007600 227 141 196
0.523347 0.167766 -0.984275 227 141 196
0.505062 0.174503 -1.008920 227 141 196
0.669136 0.180065 -1.016870 227 141 196
0.566612 0.208813 -0.986065 227 141 196
0.562971 0.210425 -1.001050 227 141 196
0.693741 0.171743 -1.000690 227 141 196
0.683877 0.179922 -0.986359 227 141 196
0.708560 0.152770 -1.015200 227 141 196
0.582584 0.193546 -0.990570 227 141 196
0.508758 0.233218 -0.990930 227 141 196
0.684886 0.235050 -0.984964 227 141 196
0.733627 0.134309 -0.998007 227 141 196
0.485834 0.250927 -0.986756 227 141 196
0.490363 0.245199 -1.017490 227 141 196
0.671983 0.271921 -1.013260 227 141 196
0.181821 0.988088 -0.871482 159 216 231
0.184988 0.982039 -0.869199 159 216 231
0.217293 0.986262 -0.865347 159 216 231
0.224854 1.015760 -0.891453 159 216 231
0.253399 0.995557 -0.816815 159 216 231
0.265907 1.002510 -0.803346 159 216 231
0.265624 0.992815 -0.799217 159 216 231
0.275249 1.013000 -0.801674 159 216 231
0.292879 0.989234 -0.810376 159 216 231
0.296702 0.983865 -0.814268 159 216 231
0.346985 0.988372 -0.805106 159 216 231
0.337577 0.988662 -0.751965 159 216 231
0.361327 1.001530 -0.746700 159 216 231
-1.016750 -0.742618 0.804997 168 145 237
-1.004230 -0.727961 0.787400 168 145 237
-0.994776 -0.757043 0.812062 168 145 237
-1.002180 -0.761160 0.823556 168 145 237
-1.007350 -0.720039 0.786512 168 145 237
-1.002880 -0.779952 0.836063 168 145 237
-0.993616 -0.777794 0.763541 168 145 237
-0.996475 -0.783380 0.847033 168 145 237
-0.985218 -0.805989 0.760607 168 145 237
-0.994450 -0.774263 0.719343 168 145 237
-0.991832 -0.887662 0.695268 159 150 162
-0.988217 -0.847353 0.657477 159 150 162
-1.000640 -0.836988 0.668763 159 150 162
-0.997903 -0.924263 0.650724 159 150 162
-1.015450 -0.839842 0.720176 159 150 162
-1.016770 -0.865573 0.626282 159 150 162
-1.014040 -0.798385 0.688370 159 150 162
-1.004030 -0.926395 0.640842 159 150 162
-1.007260 -0.965012 0.657818 159 150 162
-0.991096 -0.967815 0.657937 159 150 162
-1.011420 -0.964415 0.632747 159 150 162
-0.998138 -0.832826 0.593960 159 150 162
-0.990965 -0.847683 0.583874 159 150 162
-0.998739 -0.902825 0.588952 159 150 162
-0.990684 -0.832633 0.585228 159 150 162
-1.011930 -0.754059 0.694088 159 150 162
-0.997396 -0.755896 0.667515 159 150 162
-1.011380 -0.806703 0.578415 159 150 162
-0.986736 -0.827899 0.548673 159 150 162
-1.007570 -0.895442 0.571899 159 150 162
-0.996878 -0.872756 0.531273 159 150 162
-1.003920 -0.912955 0.553787 159 150 162
-0.998768 -0.804897 0.534779 159 150 162
-1.013520 -0.771768 0.633355 159 150 162
-1.015420 -0.773824 0.609521 159 150 162
-1.013260 -0.794852 0.520724 159 150 162
-1.000840 -0.874004 0.527172 159 150 162
-1.010720 -0.937850 0.528854 159 150 162
-0.997044 -0.896859 0.487444 159 150 162
-1.014580 -0.944842 0.529268 159 150 162
-0.999163 -0.733160 0.587794 159 150 162
-1.015100 -0.721179 0.583764 159 150 162
-0.987336 -0.959307 0.513445 159 150 162
-1.015100 -0.706971 0.590667 159 150 162
-1.011220 -0.699179 0.589821 159 150 162
-1.001490 -0.691846 0.555080 159 150 162
-1.007500 -0.668131 0.629999 159 150 162
-0.994067 -0.668039 0.628530 159 150 162
-1.014370 -0.646816 0.634854 159 150 162
0.987524 -0.870205 -0.676797 202 166 167
0.993390 -0.853215 -0.678264 202 166 167
0.997251 -0.858400 -0.655765 202 166 167
0.983862 -0.842608 -0.672340 202 166 167
0.998156 -0.832568 -0.641174 202 166 167
1.016930 -0.811982 -0.697341 202 166 167
0.986915 -0.802560 -0.626460 202 166 167
1.010430 -0.809553 -0.614328 202 166 167
0.993865 -0.789285 -0.644556 202 166 167
1.008450 -0.749574 -0.622226 202 166 167
0.990638 -0.872986 -0.550069 234 148 240
1.014820 -0.875031 -0.559033 234 148 240
0.996951 -0.822790 -0.572448 234 148 240
0.985956 -0.930520 -0.534734 234 148 240
0.988087 -0.814696 -0.563929 234 148 240
0.991253 -0.946004 -0.548488 234 148 240
1.010510 -0.953304 -0.558878 234 148 240
0.989153 -0.782349 -0.516284 234 148 240
1.001560 -0.763133 -0.531698 234 148 240
1.008840 -0.745146 -0.495643 234 148 240
1.000890 -0.742055 -0.464446 234 148 240
0.998203 -0.763603 -0.457427 234 148 240
-1.013640 0.875587 -0.669633 170 195 143
-1.009550 0.867417 -0.671543 170 195 143
-1.011200 0.856275 -0.665222 170 195 143
-0.991585 0.857747 -0.656241 170 195 143
-0.994506 0.845379 -0.661142 170 195 143
-1.004190 0.842571 -0.685974 170 195 143
-1.004980 0.868908 -0.721738 170 195 143
-1.006810 0.786977 -0.658491 170 195 143
-1.010900 0.786543 -0.659967 170 195 143
-0.983548 0.848930 -0.750765 170 195 143
-1.001780 0.768789 -0.641530 170 195 143
-1.006100 0.770456 -0.701575 170 195 143
-1.007550 0.844965 -0.796787 170 195 143
-1.004880 0.798243 -0.590973 170 195 143
-1.014850 0.752319 -0.714247 170 195 143
-0.985700 0.748633 -0.704224 170 195 143
-1.012780 0.762609 -0.733093 170 195 143
-0.991545 0.745077 -0.731415 170 195 143
-1.002860 0.732196 -0.724067 170 195 143
-0.986784 0.812168 -0.582363 170 195 143
-0.995891 0.830233 -0.569651 170 195 143
-0.983905 0.758964 -0.569965 170 195 143
-1.010170 0.829759 -0.548725 170 195 143
-0.996316 0.701842 -0.743120 170 195 143
-1.006460 0.718650 -0.782120 170 195 143
-0.982804 0.838098 -0.543043 170 195 143
-1.003040 0.847495 -0.541784 170 195 143
-1.000970 0.866784 -0.579946 170 195 143
-1.001350 0.865099 -0.546117 170 195 143
-0.992396 0.667216 -0.743312 170 195 143
-0.991699 0.715866 -0.789368 170 195 143
-0.986995 0.720864 -0.787550 170 195 143
-1.012300 0.653992 -0.775084 170 195 143
-0.987792 0.646479 -0.765418 170 195 143
-0.991938 0.760484 -0.809141 170 195 143
-0.981430 0.709501 -0.835271 170 195 143
-0.986370 0.874905 -0.519876 170 195 143
-0.995640 0.902244 -0.570251 170 195 143
-1.006860 0.765782 -0.831914 170 195 143
-1.015440 0.751551 -0.845900 170 195 143
-0.989744 0.690250 -0.882514 170 195 143
-0.992418 0.907686 -0.485003 170 195 143
-1.002670 0.937690 -0.467914 170 195 143
-1.002260 0.921197 -0.438970 170 195 143
-1.002630 0.953293 -0.417528 170 195 143
0.676628 0.991277 -0.829986 248 196 232
0.683619 1.016520 -0.848850 248 196 232
0.638596 0.998434 -0.817383 248 196 232
0.727119 0.996291 -0.799229 248 196 232
0.719573 1.011930 -0.878147 248 196 232
0.668588 1.010850 -0.895224 248 196 232
0.714790 1.002170 -0.776634 248 196 232
0.770048 1.011140 -0.788045 248 196 232
0.757140 0.994073 -0.884491 248 196 232
0.754745 0.981771 -0.895281 248 196 232
0.767025 0.995903 -0.911626 248 196 232
0.640284 1.009460 -0.916410 248 196 232
0.676753 0.991729 -0.749420 248 196 232
0.776965 0.998024 -0.939387 248 196 232
0.598778 1.002030 -0.886253 248 196 232
0.593697 0.989013 -0.894120 248 196 232
0.669768 0.981666 -0.747634 248 196 232
-0.697150 1.001840 0.748969 197 186 169
-0.686514 1.002570 0.753418 197 186 169
-0.682762 0.991491 0.743972 197 186 169
-0.716174 1.017360 0.706222 197 186 169
-0.703835 0.983070 0.795188 197 186 169
-0.718632 1.013480 0.697364 197 186 169
-0.718783 0.998532 0.680570 197 186 169
-0.735450 0.990337 0.688956 197 186 169
-0.732730 0.983111 0.809992 197 186 169
-0.698041 1.000100 0.853134 197 186 169
-1.014500 -0.940489 -0.696392 230 212 225
-0.985551 -0.955956 -0.677438 230 212 225
-1.001860 -0.973830 -0.673518 230 212 225
-1.013780 -0.974038 -0.654210 230 212 225
-0.983848 -0.992119 -0.672046 230 212 225
-0.991471 -0.989818 -0.650742 230 212 225
-0.996498 -0.994299 -0.659324 230 212 225
-0.983779 -1.003290 -0.683198 230 212 225
-0.980234 -1.017370 -0.672943 230 212 225
-0.994683 -1.017970 -0.646223 230 212 225
0.691050 -0.861016 -1.015020 212 148 187
0.677529 -0.860351 -1.010200 212 148 187
0.704756 -0.823810 -1.004770 212 148 187
0.715065 -0.908086 -1.013570 212 148 187
0.706560 -0.907585 -0.985074 212 148 187
0.720308 -0.796075 -1.013970 212 148 187
0.716067 -0.954211 -1.007210 212 148 187
0.698382 -0.952419 -0.987761 212 148 187
0.721710 -0.970258 -0.995619 212 148 187
0.692501 -0.972906 -0.999966 212 148 187
0.732328 -0.822858 -1.007890 249 199 136
0.728460 -0.794983 -0.993936 249 199 136
0.694309 -0.829519 -1.002210 249 199 136
0.774301 -0.851289 -0.994838 249 199 136
0.700918 -0.778804 -0.997581 249 199 136
0.768278 -0.769255 -1.005800 249 199 136
0.688607 -0.766963 -1.011580 249 199 136
0.676086 -0.812922 -0.985441 249 199 136
0.782425 -0.777922 -1.007040 249 199 136
0.702402 -0.744213 -0.982257 249 199 136
0.798317 -0.847365 -0.989694 249 199 136
0.790977 -0.874863 -0.998360 249 199 136
0.782592 -0.873607 -1.015150 249 199 136
0.807227 -0.839060 -1.001800 249 199 136
0.766747 -0.889807 -1.002620 249 199 136
0.665218 -0.762529 -1.012530 249 199 136
0.657570 -0.750954 -1.014360 249 199 136
0.651607 -0.752738 -0.998339 249 199 136
0.772412 -0.752635 -0.994677 249 199 136
0.794158 -0.743017 -1.002160 249 199 136
0.812843 -0.797392 -1.016490 249 199 136
0.816000 -0.794410 -1.012080 249 199 136
0.731293 -0.723381 -1.012880 249 199 136
0.763938 -0.926982 -1.016680 249 199 136
0.610070 -0.741656 -1.005070 249 199 136
0.855309 -0.780945 -1.005140 249 199 136
0.800188 -0.966318 -0.999429 249 199 136
0.795496 -0.966161 -0.984878 249 199 136
0.588049 -0.765570 -1.006510 249 199 136
0.611062 -0.688125 -1.009160 249 199 136
0.855713 -0.747419 -1.012150 249 199 136
0.848537 -0.744196 -1.008800 249 199 136
0.896810 -0.810712 -0.992180 249 199 136
0.903866 -0.810035 -0.985047 249 199 136
0.906944 -0.814192 -1.002050 249 199 136
0.896115 -0.831415 -1.017980 249 199 136
0.567604 -0.996732 -1.018010 181 237 223
0.566949 -0.966529 -1.011810 181 237 223
0.565268 -0.930903 -1.006840 181 237 223
0.546605 -0.925755 -1.006180 181 237 223
0.562550 -0.882445 -0.987408 181 237 223
0.505751 -0.921150 -0.998786 181 237 223
0.481184 -0.919142 -0.993075 181 237 223
0.479226 -0.919503 -0.981721 181 237 223
0.471835 -0.928233 -1.014840 181 237 223
0.459444 -0.920209 -0.998124 181 237 223
0.431637 -0.898512 -0.987283 181 237 223
0.485884 -0.865036 -0.982025 181 237 223
0.471923 -0.863843 -0.987209 181 237 223
0.430090 -0.894415 -1.010670 181 237 223
0.436151 -0.852642 -1.002400 181 237 223
0.566494 -0.879080 -1.007620 171 222 175
0.555747 -0.897548 -0.996686 171 222 175
0.575459 -0.853995 -0.986234 171 222 175
0.592415 -0.854916 -1.003250 171 222 175
0.544014 -0.912916 -1.012080 171 222 175
0.529908 -0.903240 -0.984400 171 222 175
0.611941 -0.897840 -1.016930 171 222 175
0.588232 -0.834512 -0.994979 171 222 175
0.617358 -0.890319 -0.994511 171 222 175
0.533722 -0.923712 -0.999585 171 222 175
0.503290 -0.873049 -0.986397 171 222 175
0.614067 -0.845911 -1.000180 171 222 175
0.604567 -0.811245 -1.007840 171 222 175
0.512176 -0.945467 -1.014510 171 222 175
0.496767 -0.887014 -0.992956 171 222 175
0.580143 -0.767838 -1.011940 171 222 175
0.552204 -0.769849 -1.015840 171 222 175
0.608007 -0.724399 -0.986729 171 222 175
0.517075 -0.750718 -1.016990 171 222 175
0.650278 -0.703641 -0.982713 171 222 175
0.664287 -0.718364 -0.987330 171 222 175
0.480225 -0.804096 -1.013270 171 222 175
0.665217 -0.675063 -0.992211 171 222 175
0.468512 -0.794880 -0.993993 171 222 175
0.467358 -0.791464 -0.994468 171 222 175
0.690185 -0.630868 -1.015940 171 222 175
0.703497 -0.629892 -1.018380 171 222 175
0.648677 -0.606786 -1.001730 171 222 175
0.643359 -0.583851 -0.998783 171 222 175
0.626873 -0.596499 -0.981291 171 222 175
0.589724 -0.593144 -1.010890 171 222 175
-0.680809 0.882304 -1.001370 216 235 160
-0.675743 0.896108 -1.001460 216 235 160
-0.684463 0.875505 -1.016020 216 235 160
-0.703581 0.893148 -1.009630 216 235 160
-0.718874 0.885187 -0.989325 216 235 160
-0.668895 0.922499 -0.996397 216 235 160
-0.727252 0.881100 -0.997002 216 235 160
-0.733156 0.874805 -0.998507 216 235 160
-0.728683 0.906664 -0.985209 216 235 160
-0.736564 0.850387 -1.012690 216 235 160
-0.738009 0.856939 -0.993510 216 235 160
-0.760631 0.872232 -1.005180 216 235 160
-0.794683 0.865829 -1.003800 216 235 160
-0.808778 0.865705 -0.982633 216 235 160
-0.820779 0.867915 -1.003240 216 235 160
-0.829604 0.859475 -1.002590 216 235 160
-0.703039 1.012300 -0.864540 203 192 135
-0.729070 0.998387 -0.893690 203 192 135
-0.656868 1.003240 -0.857867 203 192 135
-0.769725 1.018550 -0.905034 203 192 135
-0.773262 1.014730 -0.856378 203 192 135
-0.636327 1.017660 -0.843141 203 192 135
-0.624423 0.990405 -0.834051 203 192 135
-0.790002 0.992912 -0.858935 203 192 135
-0.766096 1.000480 -0.837202 203 192 135
-0.788281 0.994299 -0.853421 203 192 135
-0.786002 0.983913 -0.842474 203 192 135
-0.594879 0.992180 -0.810550 203 192 135
-0.983600 0.075037 -0.621046 182 166 154
-0.985702 0.074160 -0.621313 182 166 154
-1.003240 0.091453 -0.623933 182 166 154
-0.990552 0.070203 -0.577393 182 166 154
-1.014390 0.072639 -0.576525 182 166 154
-1.002290 0.137458 -0.650946 182 166 154
-0.989687 0.019635 -0.588524 182 166 154
-0.997090 0.008520 -0.579691 182 166 154
-1.005170 -0.012889 -0.526410 182 166 154
-1.010830 -0.008005 -0.512665 182 166 154
-0.997306 0.560950 -0.612332 134 216 177
-0.993019 0.585202 -0.628896 134 216 177
-0.995997 0.595063 -0.624531 134 216 177
-0.990670 0.555654 -0.575611 134 216 177
-0.988812 0.529184 -0.640058 134 216 177
-0.990210 0.643051 -0.617509 134 216 177
-0.986070 0.536593 -0.559440 134 216 177
-0.991080 0.512423 -0.665835 134 216 177
-1.018140 0.512339 -0.655501 134 216 177
-1.005340 0.536883 -0.519618 134 216 177
-1.009790 0.550662 -0.517968 134 216 177
-1.011040 0.513141 -0.702049 218 141 195
-0.997299 0.497523 -0.720956 218 141 195
-0.997771 0.507685 -0.742452 218 141 195
-1.007990 0.508820 -0.747015 218 141 195
-1.001900 0.465733 -0.701290 218 141 195
-1.008720 0.474010 -0.660352 218 141 195
-0.981279 0.497585 -0.750229 218 141 195
-0.994997 0.506261 -0.770162 218 141 195
-0.983645 0.544749 -0.742545 218 141 195
-1.014750 0.555813 -0.757560 218 141 195
-0.991369 0.471873 -0.666925 218 141 195
-0.981763 0.470044 -0.658695 218 141 195
-0.991550 0.441920 -0.764292 218 141 195
-1.013410 0.494207 -0.804819 218 141 195
-1.009940 0.589429 -0.782026 218 141 195
-0.985892 0.436291 -0.767646 218 141 195
-1.004690 0.439471 -0.767915 218 141 195
-0.990915 0.437611 -0.749895 218 141 195
0.985383 -0.620216 0.922467 166 223 169
0.983713 -0.620825 0.905704 166 223 169
0.999471 -0.627323 0.885045 166 223 169
1.014240 -0.632600 0.869782 166 223 169
1.010700 -0.656083 0.848320 166 223 169
1.011200 -0.675045 0.905966 166 223 169
1.000650 -0.704325 0.818000 166 223 169
1.006890 -0.688116 0.914158 166 223 169
0.994324 -0.713760 0.794057 166 223 169
0.988683 -0.732316 0.789781 166 223 169
1.004030 -0.705429 0.773442 166 223 169
0.999063 -0.747979 0.754181 166 223 169
0.981373 -0.710283 0.739067 166 223 169
0.990567 -0.759831 0.731237 166 223 169
0.994043 -0.633238 -0.565399 195 140 163
0.997294 -0.642632 -0.565240 195 140 163
1.001720 -0.627349 -0.567755 195 140 163
0.992830 -0.623170 -0.560378 195 140 163
0.986638 -0.627165 -0.583169 195 140 163
1.012700 -0.595839 -0.555269 195 140 163
0.999668 -0.590990 -0.618594 195 140 163
0.996366 -0.637863 -0.638906 195 140 163
1.002330 -0.545880 -0.549342 195 140 163
1.018840 -0.662828 -0.668297 195 140 163
1.004020 -0.670694 -0.673486 195 140 163
1.002440 -0.686957 -0.642221 195 140 163
-0.994148 -0.631982 -0.560574 190 194 237
-0.984449 -0.653436 -0.576849 190 194 237
-1.001140 -0.610597 -0.614532 190 194 237
-1.003230 -0.607111 -0.631617 190 194 237
-1.009660 -0.582192 -0.592952 190 194 237
-0.988914 -0.638438 -0.640190 190 194 237
-0.982022 -0.581281 -0.594153 190 194 237
-0.982278 -0.532203 -0.587742 190 194 237
-0.995602 -0.495673 -0.560582 190 194 237
-1.017390 -0.499120 -0.620026 190 194 237
-0.994848 -0.482853 -0.544764 190 194 237
-0.994033 -0.466050 -0.581506 190 194 237
-0.994560 -0.469536 -0.527744 190 194 237
-1.010980 -0.473194 -0.596685 190 194 237
-1.017620 -0.460528 -0.640407 190 194 237
-0.986118 -0.416460 -0.607854 190 194 237
-1.009550 -0.477339 -0.484411 190 194 237
-1.005790 -0.390956 -0.619733 190 194 237
-0.995259 -0.382353 -0.611942 190 194 237
-0.987345 -0.390892 -0.572815 190 194 237
-0.990283 -0.361058 -0.599811 190 194 237
-0.997425 -0.361085 -0.581439 190 194 237
-1.007380 -0.343017 -0.595153 190 194 237
-1.016610 -0.340711 -0.591021 190 194 237
-0.993452 -0.376228 -0.555800 190 194 237
-0.984164 -0.371682 -0.558915 190 194 237
-0.995980 -0.312665 -0.552601 190 194 237
-0.997865 -0.391415 -0.508415 190 194 237
-0.985469 -0.353983 -0.505055 190 194 237
-1.010950 -0.280396 -0.531924 190 194 237
-1.003520 -0.269266 -0.539037 190 194 237
-1.010140 -0.375654 -0.467259 190 194 237
-0.985891 -0.389506 -0.450014 190 194 237
-0.981488 -0.385495 -0.446162 190 194 237
-0.990563 -0.335245 -0.423614 190 194 237
-0.997230 -0.306520 -0.434010 190 194 237
-1.000060 -0.311431 -0.446047 190 194 237
-0.982410 -0.301402 -0.398259 190 194 237
-0.990640 -0.290337 -0.394444 190 194 237
-1.010120 -0.264653 -0.387173 190 194 237
-1.006050 -0.239817 -0.360993 190 194 237
-1.017780 -0.246073 -0.355303 190 194 237
-1.001580 -0.229135 -0.353743 190 194 237
-0.453188 -1.006970 -0.065968 136 199 162
-0.443374 -1.015230 -0.080656 136 199 162
-0.435423 -1.017150 -0.063949 136 199 162
-0.452665 -1.000840 -0.013566 136 199 162
-0.425140 -0.995905 -0.014842 136 199 162
-0.497920 -0.991537 -0.107809 136 199 162
-0.419330 -1.005310 -0.011320 136 199 162
-0.377099 -1.013630 -0.058497 136 199 162
-0.490282 -1.011760 0.024629 136 199 162
-0.380454 -0.996122 0.018374 136 199 162
-0.514031 -1.002450 -0.092703 136 199 162
-0.476741 -1.004440 -0.131999 136 199 162
-0.498501 -1.003350 -0.142072 136 199 162
-0.530545 -1.011990 0.021083 136 199 162
-0.531079 -0.984623 0.002271 136 199 162
-0.366478 -1.014870 0.024355 136 199 162
-0.563548 -1.008050 -0.089145 136 199 162
-0.554022 -0.997331 0.014236 136 199 162
-0.572188 -1.004050 0.029564 136 199 162
-0.568309 -1.008520 0.047942 136 199 162
-0.573701 -1.004040 0.037388 136 199 162
-0.581123 -1.018760 0.052971 136 199 162
-0.574263 -0.995504 -0.093689 136 199 162
-0.579512 -1.018040 -0.080794 136 199 162
-0.600250 -1.000230 -0.089529 136 199 162
-0.600487 -0.987581 -0.105350 136 199 162
-0.601226 -1.017430 0.027160 136 199 162
-0.579757 -0.992542 0.096002 136 199 162
-0.644435 -0.998496 -0.094148 136 199 162
-0.655606 -1.005680 -0.092665 136 199 162
-0.544897 -0.983728 0.108251 136 199 162
-0.672950 -0.985365 -0.100915 136 199 162
-0.684835 -0.992066 -0.084387 136 199 162
-0.709689 -1.010920 -0.064007 136 199 162
-0.728297 -0.994873 -0.035026 136 199 162
-0.752103 -0.994253 -0.049537 136 199 162
-0.751472 -0.993304 -0.048045 136 199 162
-0.746901 -1.006250 -0.031215 136 199 162
0.067941 -1.013610 0.421074 202 170 184
0.089205 -0.990602 0.416151 202 170 184
0.099327 -0.995028 0.437881 202 170 184
0.085804 -1.018240 0.371745 202 170 184
0.136774 -1.017110 0.462071 202 170 184
0.151534 -0.992336 0.461997 202 170 184
0.094802 -0.998813 0.352190 202 170 184
0.060154 -1.009150 0.341092 202 170 184
0.075378 -0.984921 0.333348 202 170 184
0.164151 -0.983899 0.463662 202 170 184
0.110753 -1.011170 0.510066 202 170 184
0.206516 -0.991040 0.451598 202 170 184
0.103599 -1.004990 0.310908 202 170 184
0.105052 -1.015770 0.309016 202 170 184
0.106358 -1.011590 0.515384 202 170 184
0.099964 -0.995728 0.503362 202 170 184
0.078881 -1.014870 0.505232 202 170 184
0.222806 -0.991243 0.451423 202 170 184
0.148191 -1.009480 0.298403 202 170 184
-0.118087 -0.989383 -0.563474 187 194 151
-0.142607 -0.989704 -0.530547 187 194 151
-0.154798 -0.983157 -0.536424 187 194 151
-0.154243 -0.994595 -0.531793 187 194 151
-0.175209 -1.003640 -0.538407 187 194 151
-0.173330 -1.013720 -0.528203 187 194 151
-0.184513 -1.013440 -0.534323 187 194 151
-0.153311 -1.009920 -0.483100 187 194 151
-0.193106 -0.993428 -0.565016 187 194 151
-0.211122 -0.983890 -0.493186 187 194 151
1.006090 -0.362416 0.452256 163 219 239
0.994398 -0.339810 0.433651 163 219 239
0.983535 -0.390418 0.454915 163 219 239
1.001130 -0.397175 0.437256 163 219 239
1.013980 -0.399312 0.431175 163 219 239
1.013440 -0.318846 0.456253 163 219 239
1.000650 -0.404485 0.476718 163 219 239
1.007380 -0.403730 0.479553 163 219 239
1.009470 -0.393874 0.509974 163 219 239
0.985866 -0.411960 0.547248 163 219 239
0.983065 -0.423131 0.581232 163 219 239
1.000130 -0.405416 0.579942 163 219 239
1.002460 -0.454263 0.529524 163 219 239
0.997422 -0.368391 0.588969 163 219 239
0.992119 -0.340774 0.598719 163 219 239
1.010320 -0.350486 0.647628 163 219 239
-0.998930 -0.047307 0.379635 172 229 197
-1.010140 -0.042590 0.382468 172 229 197
-0.995222 -0.059935 0.387077 172 229 197
-0.985509 -0.040953 0.374926 172 229 197
-1.011200 -0.012442 0.366671 172 229 197
-0.994064 -0.009676 0.362446 172 229 197
-0.983070 -0.065092 0.424671 172 229 197
-0.982087 0.039145 0.339686 172 229 197
-0.985173 0.061921 0.393643 172 229 197
-1.005240 0.063156 0.290263 172 229 197
-1.007280 0.092485 0.355476 172 229 197
-0.991256 0.083647 0.396675 172 229 197
-1.007210 0.076923 0.407595 172 229 197
-1.007440 0.099555 0.396444 172 229 197
-1.013010 0.094301 0.355782 172 229 197
0.127567 0.987923 -0.678186 219 143 141
0.107551 0.987898 -0.670948 219 143 141
0.116577 1.008300 -0.653705 219 143 141
0.138584 0.985646 -0.722945 219 143 141
0.067314 0.996604 -0.691069 219 143 141
0.051873 1.002680 -0.672575 219 143 141
0.046729 0.986524 -0.677562 219 143 141
0.033369 1.015730 -0.668520 219 143 141
0.019454 0.996925 -0.707705 219 143 141
0.025514 1.001630 -0.623363 219 143 141
0.185725 0.988755 0.294414 222 198 254
0.200619 0.998357 0.261732 222 198 254
0.237536 0.997397 0.310906 222 198 254
0.288473 0.996266 0.306988 222 198 254
0.285094 1.018390 0.299318 222 198 254
0.299191 0.984087 0.333293 222 198 254
0.316309 1.008470 0.342702 222 198 254
0.338838 1.000870 0.314694 222 198 254
0.267600 0.987179 0.359390 222 198 254
0.355459 1.001170 0.309488 222 198 254
0.302013 1.014250 0.392289 222 198 254
0.344603 0.988880 0.271003 222 198 254
0.390832 1.016450 0.356952 222 198 254
0.296278 0.997087 0.412954 222 198 254
0.326333 0.992552 0.235725 222 198 254
0.512971 1.012590 0.315572 192 221 232
0.513201 0.990088 0.330747 192 221 232
0.533419 1.001250 0.294585 192 221 232
0.539703 0.984050 0.309925 192 221 232
0.464751 0.990613 0.338669 192 221 232
0.497832 0.998223 0.384448 192 221 232
0.563412 0.984143 0.276956 192 221 232
0.451457 0.987085 0.344520 192 221 232
0.452756 1.003830 0.287433 192 221 232
0.607483 1.005120 0.264581 192 221 232
0.695405 0.984623 0.494039 159 167 177
0.698349 0.988486 0.475774 159 167 177
0.705048 0.983566 0.517355 159 167 177
0.714535 1.008100 0.501342 159 167 177
0.721476 1.003250 0.483227 159 167 177
0.726376 0.997690 0.545178 159 167 177
0.772602 1.012380 0.486050 159 167 177
0.718226 0.993271 0.576071 159 167 177
0.774137 0.984232 0.503862 159 167 177
0.671481 0.994869 0.578656 159 167 177
0.680596 1.006640 0.631992 159 167 177
0.633867 0.999512 0.629769 159 167 177
0.633077 1.003350 0.657153 159 167 177
-0.170703 -0.374580 -1.007360 179 192 135
-0.134964 -0.394806 -0.999755 179 192 135
-0.122052 -0.403113 -0.996228 179 192 135
-0.135029 -0.422527 -1.010060 179 192 135
-0.110127 -0.419051 -1.011000 179 192 135
-0.112191 -0.444376 -0.994896 179 192 135
-0.101996 -0.454681 -1.017120 179 192 135
-0.101307 -0.469188 -0.983421 179 192 135
-0.095358 -0.468907 -0.982522 179 192 135
-0.087823 -0.483942 -1.012140 179 192 135
-0.072609 -0.516443 -1.006000 179 192 135
-0.069725 -0.545614 -1.005800 179 192 135
-0.610178 -0.450247 -0.981392 188 235 254
-0.624204 -0.458515 -0.983926 188 235 254
-0.610710 -0.434834 -0.995904 188 235 254
-0.595055 -0.455642 -0.999178 188 235 254
-0.669973 -0.445134 -0.995661 188 235 254
-0.574385 -0.397453 -1.005840 188 235 254
-0.677135 -0.407448 -1.004790 188 235 254
-0.689876 -0.407609 -0.990245 188 235 254
-0.671808 -0.399533 -0.995171 188 235 254
-0.692020 -0.492979 -0.998098 188 235 254
-0.582229 -0.375665 -0.987169 188 235 254
-0.702312 -0.380481 -1.011320 188 235 254
-0.657882 -0.349989 -1.002860 188 235 254
-0.732633 -0.431661 -0.996904 188 235 254
-0.668861 -0.345553 -1.005380 188 235 254
-0.675651 -0.515126 -1.006770 188 235 254
-0.707085 -0.539806 -1.000480 188 235 254
-0.681595 -0.329094 -1.005930 188 235 254
-0.760847 -0.370010 -1.015390 188 235 254
-0.679553 -0.326324 -0.987347 188 235 254
-0.780149 -0.451403 -0.990103 188 235 254
-0.741849 -0.333954 -0.992248 188 235 254
-0.750900 -0.491103 -0.990789 188 235 254
-0.668809 0.568208 -1.000280 252 173 232
-0.658787 0.555007 -0.999918 252 173 232
-0.649506 0.558178 -1.006840 252 173 232
-0.638809 0.583062 -0.992527 252 173 232
-0.674679 0.501052 -0.995029 252 173 232
-0.655418 0.468582 -1.011960 252 173 232
-0.679064 0.437453 -0.986369 252 173 232
-0.603332 0.478820 -1.014210 252 173 232
-0.672548 0.415482 -1.012890 252 173 232
-0.658184 0.409510 -0.997050 252 173 232
-0.599535 0.478175 -0.983332 252 173 232
-0.546151 0.473720 -0.986070 252 173 232
-0.537731 0.450445 -0.999733 252 173 232
-0.551351 0.514408 -1.005920 252 173 232
0.390450 0.423690 -0.990472 138 213 151
0.378118 0.411478 -0.985487 138 213 151
0.405147 0.419594 -1.006330 138 213 151
0.424439 0.458994 -1.017850 138 213 151
0.394237 0.356649 -0.987198 138 213 151
0.405427 0.349876 -0.983343 138 213 151
0.388143 0.323134 -0.991221 138 213 151
0.366003 0.332329 -0.988450 138 213 151
0.423846 0.332301 -0.997851 138 213 151
0.425191 0.302136 -1.015010 138 213 151
0.413558 0.270260 -1.008770 138 213 151
-0.453295 0.996631 0.135556 188 246 199
-0.418852 1.003230 0.144557 188 246 199
-0.459293 0.984605 0.085336 188 246 199
-0.407257 0.989505 0.179275 188 246 199
-0.383978 0.983827 0.174937 188 246 199
-0.499081 1.018480 0.102354 188 246 199
-0.378204 0.998825 0.192113 188 246 199
-0.382403 1.016910 0.216365 188 246 199
-0.328696 0.994522 0.168936 188 246 199
-0.333109 1.002400 0.195985 188 246 199
-0.284922 1.004260 0.163541 188 246 199
-0.992313 -0.700156 0.639387 228 228 135
-1.006020 -0.738426 0.657991 228 228 135
-0.997423 -0.777722 0.647003 228 228 135
-1.011400 -0.739039 0.704479 228 228 135
-1.011490 -0.801858 0.637551 228 228 135
-0.993756 -0.809895 0.651438 228 228 135
-1.015490 -0.812569 0.655280 228 228 135
-1.000640 -0.748399 0.746682 228 228 135
-1.014640 -0.728877 0.750248 228 228 135
-1.010060 -0.713486 0.748916 228 228 135
-1.001570 -0.812004 0.587450 228 228 135
-1.001560 -0.681075 0.755616 228 228 135
-0.985453 -0.684842 0.765412 228 228 135
-0.997170 -0.669542 0.765729 228 228 135
-1.008880 -0.625529 0.772661 228 228 135
1.003530 0.389207 0.949469 178 179 206
1.001940 0.378472 0.941674 178 179 206
0.997063 0.384348 0.934641 178 179 206
1.012780 0.432764 0.922876 178 179 206
0.985548 0.452493 0.905461 178 179 206
0.990007 0.465732 0.924223 178 179 206
1.018630 0.415267 0.882861 178 179 206
1.000290 0.478358 0.922824 178 179 206
0.991080 0.419536 0.846560 178 179 206
1.007330 0.444259 0.812923 178 179 206
1.010000 0.467088 0.818033 178 179 206
0.989350 0.500958 0.788162 178 179 206
0.923126 -1.004460 -0.456291 249 219 145
0.956611 -0.990655 -0.415457 249 219 145
0.969025 -0.992976 -0.390083 249 219 145
0.955623 -0.986983 -0.360844 249 219 145
0.993210 -1.004810 -0.364473 249 219 145
0.960241 -1.006180 -0.345818 249 219 145
1.017970 -0.996503 -0.326313 249 219 145
1.011030 -0.986020 -0.321183 249 219 145
0.935413 -1.005730 -0.309077 249 219 145
1.015090 -0.983486 -0.300242 249 219 145
1.009510 -0.993827 -0.294908 249 219 145
0.988221 -0.982074 -0.298695 249 219 145
0.997980 -1.002160 -0.275624 249 219 145
0.989468 -0.989156 -0.270820 249 219 145
0.954915 -0.998443 -0.252127 249 219 145
0.959972 -1.011080 -0.231838 249 219 145
0.927983 -1.001920 -0.225000 249 219 145
0.934405 -1.005690 -0.212603 249 219 145
0.908827 -0.990837 -0.219927 249 219 145
0.913550 -0.997880 -0.162279 249 219 145
0.881124 -0.986346 -0.129245 249 219 145
-1.017540 0.636301 -0.437612 166 130 132
-1.004290 0.630688 -0.439243 166 130 132
-0.993060 0.633408 -0.443270 166 130 132
-0.997887 0.604222 -0.387699 166 130 132
-1.015620 0.566032 -0.395785 166 130 132
-0.999888 0.644749 -0.350595 166 130 132
-1.003430 0.547156 -0.398201 166 130 132
-0.981147 0.517732 -0.425462 166 130 132
